-3.022873878479004 -1.0040512084960938 -2.183065891265869
1.2089028358459473 -0.020553847774863243 4.108326435089111
-1.5939862728118896 -0.9175374507904053 -0.8942175507545471
-5.030910491943359 -0.24801447987556458 4.159780979156494
1.8947175741195679 -0.8067195415496826 -0.4481244385242462
0.5212374329566956 -1.0763746500015259 -6.017800331115723
4.008370399475098 -0.07046591490507126 3.806212902069092
2.3845410346984863 -0.8241550922393799 0.14165425300598145
-0.2919035851955414 -0.7930319309234619 0.6278913617134094
-0.982249915599823 -1.0829626321792603 -5.162768363952637
1.1712721586227417 -0.044861339032649994 5.004921913146973
-0.6891165375709534 -0.8550103902816772 -2.209238290786743
2.812178134918213 -0.9054861068725586 -1.3873047828674316
1.9161478281021118 -0.9397624135017395 -3.7494099140167236
2.718580484390259 -0.07796527445316315 4.083844184875488
-2.64990496635437 -0.08405554294586182 2.5559418201446533
-0.01239287480711937 -0.8854754567146301 -1.2925556898117065
3.4700779914855957 -0.9035211801528931 0.2619000971317291
1.8215163946151733 -0.9261122941970825 -2.3871281147003174
-2.034464120864868 0.019030863419175148 3.5797970294952393
1.0169631242752075 -0.06964585930109024 3.5606460571289062
1.7581508159637451 -0.22761738300323486 5.886877536773682
-0.6309663653373718 0.08001158386468887 4.4891886711120605
-0.14178641140460968 -0.8675071001052856 -2.9882774353027344
-1.4164705276489258 -0.787224292755127 1.3110584020614624
1.459128737449646 -0.7956241369247437 0.6612868905067444
0.14243872463703156 -0.905119776725769 -1.8837928771972656
1.6020095348358154 -0.814538836479187 -0.27699166536331177
2.910630464553833 -0.9711912274360657 -3.53519344329834
3.3764073848724365 -0.17984218895435333 4.692023277282715
1.370719075202942 -0.8840500116348267 -2.2559664249420166
-2.780724048614502 -1.0049409866333008 -2.9842309951782227
1.060500144958496 -0.030162936076521873 4.736275672912598
1.0669015645980835 -0.834658682346344 -0.42919692397117615
-1.3677009344100952 -0.09578834474086761 5.408398151397705
3.2117104530334473 -0.2892029583454132 5.505370616912842
0.9879993200302124 -0.16327638924121857 5.723222732543945
3.185678482055664 -0.07948585599660873 3.94559383392334
-0.3113417327404022 -0.8673376441001892 -0.6191658973693848
-1.1309785842895508 -0.9356105923652649 -3.3494017124176025
-0.375253289937973 -0.14111852645874023 6.091207981109619
2.1368253231048584 -0.07626518607139587 3.6026668548583984
-3.468015670776367 -1.1371264457702637 -4.63557243347168
-4.710212230682373 -1.0665985345840454 -2.6782407760620117
-0.8093923926353455 -0.8258370161056519 0.839180588722229
-2.176797866821289 -1.088027834892273 -4.904077529907227
0.28368133306503296 -0.8459306955337524 -0.761039137840271
0.07209490239620209 -0.8396497368812561 -0.3185867667198181
0.6361832022666931 -0.7472255229949951 0.8199211955070496
0.49227285385131836 -0.017889104783535004 3.7713282108306885
-5.758865833282471 -0.22489961981773376 3.2915210723876953
-4.69642972946167 -1.1042715311050415 -3.216135025024414
-0.8236823081970215 -0.8887551426887512 0.3308142423629761
0.6242551803588867 -0.8914050459861755 -4.081475734710693
-6.675095558166504 -0.3486361801624298 1.8566672801971436
-1.141310214996338 -0.9232428073883057 -4.071269512176514
1.0937848091125488 -0.38480791449546814 6.765455722808838
1.4124057292938232 -1.0786983966827393 -5.752295970916748
2.6489360332489014 -0.8053638935089111 0.7119000554084778
2.4876675605773926 -0.997829020023346 -3.800236940383911
1.0433365106582642 -0.014869539067149162 4.044949054718018
-0.3159511387348175 -0.022304190322756767 3.578705072402954
5.307276725769043 -0.1556529849767685 3.6129355430603027
-1.960450530052185 -0.9319459795951843 -3.9432713985443115
1.617541790008545 -0.03686435520648956 4.19957160949707
-3.767124891281128 -0.9207472801208496 -1.8165175914764404
-0.39258691668510437 -0.8610737919807434 -2.872690200805664
0.910556972026825 -0.8150896430015564 -1.2500587701797485
2.4242162704467773 -0.8791917562484741 -3.0734899044036865
4.310527324676514 -0.04392799362540245 3.106025457382202
-1.8816723823547363 -0.9031440615653992 -3.6057381629943848
-4.89136266708374 -0.730384886264801 -5.194273948669434
6.068607330322266 -0.30345043540000916 1.037615180015564
1.3544596433639526 -0.03590013459324837 4.405052185058594
-3.022535800933838 -1.076849341392517 -4.454854488372803
-0.33067038655281067 -0.9212989807128906 -1.4857842922210693
0.3837626278400421 -0.7828181982040405 0.2772062420845032
-0.7560902833938599 0.03281059488654137 5.046393871307373
-0.8319810628890991 -0.8687664866447449 -1.7533864974975586
-5.301721096038818 -1.0867546796798706 -2.755295515060425
0.1495610475540161 -0.9275973439216614 -4.0569167137146
-4.927235126495361 -0.015030509792268276 2.3480751514434814
2.0298573970794678 -0.8007879853248596 0.8089777827262878
5.907491207122803 -1.18850576877594 -3.026268720626831
-6.598179340362549 -0.3887079060077667 -1.2539061307907104
1.5114492177963257 -0.7962146997451782 -1.1750597953796387
-4.232751369476318 -1.1314793825149536 -3.847684144973755
-0.3480105996131897 -0.8630005717277527 -0.31211426854133606
1.1055220365524292 -0.8541979789733887 -2.1873857975006104
-4.752358913421631 -1.0796886682510376 -2.8150930404663086
0.7181400656700134 -0.11051966995000839 5.609240531921387
0.5523362159729004 -0.8952316641807556 -4.1134724617004395
-1.5822174549102783 0.0752466470003128 4.537051677703857
-2.6581053733825684 -1.0961819887161255 -4.769712924957275
2.6343252658843994 -0.8440036177635193 -0.05089510977268219
1.0311959981918335 -0.01832594722509384 5.051422119140625
0.04688882455229759 -0.8453155755996704 -0.4306264817714691
2.818153142929077 -0.3746016323566437 6.108788013458252
3.083249568939209 -0.09370261430740356 3.5265119075775146
2.0783023834228516 -0.86736661195755 -1.5865224599838257
0.44147738814353943 -0.9068158268928528 -4.455050468444824
-1.5291775465011597 0.0876459926366806 4.209177494049072
2.495033025741577 -0.08560168743133545 4.47719669342041
-0.7104701399803162 -0.8392319083213806 0.6371448636054993
-2.120079517364502 -0.8526232838630676 0.7099331617355347
3.234086513519287 -0.8922114968299866 -0.6003890037536621
0.135884091258049 -0.7383880019187927 1.5490447282791138
4.697196006774902 -0.9912613034248352 -1.1284456253051758
2.2753002643585205 -0.10020772367715836 4.688082218170166
0.07703978568315506 -0.8465675115585327 -0.509040355682373
1.1916842460632324 -0.8917697072029114 -3.126490354537964
-1.1554217338562012 -0.7982702851295471 1.2229472398757935
2.865720748901367 -0.9085772633552551 -1.3869946002960205
-5.481820106506348 -1.0366889238357544 -2.26253342628479
-2.358252763748169 -1.0105055570602417 -4.294958591461182
-2.1728410720825195 -1.1287436485290527 -5.452646255493164
-0.20689573884010315 -0.7652574777603149 0.8218196630477905
1.3213955163955688 -0.07163315266370773 4.965386867523193
-2.749608278274536 -0.9816770553588867 -3.387847423553467
-6.104151725769043 -0.23404386639595032 1.4706286191940308
1.795864224433899 -0.048453014343976974 4.32931661605835
5.14943790435791 -1.14188814163208 -2.3169519901275635
-4.221229076385498 -1.1382339000701904 -3.9260213375091553
0.5268701314926147 -0.8321722745895386 -1.4587926864624023
0.501829206943512 -0.8340068459510803 -0.4004957675933838
-1.0575201511383057 -0.9172619581222534 -3.7642390727996826
0.20968027412891388 -0.8206794857978821 -0.10212111473083496
1.3080036640167236 -0.7994807362556458 -1.304713487625122
-2.685565233230591 -1.017274260520935 -2.426814317703247
-6.657013893127441 -0.49305370450019836 -2.1988308429718018
2.3505098819732666 -0.21223483979701996 5.304720401763916
-3.253038167953491 -1.0855909585952759 -4.358876705169678
-2.18267560005188 -0.968433141708374 -2.0951476097106934
3.3265347480773926 -0.9288707971572876 -1.9464163780212402
0.6989388465881348 -0.8638119101524353 -4.300070285797119
3.947401285171509 -0.9171102643013 0.05654022842645645
-4.141516208648682 -1.151639699935913 -4.124825954437256
-1.4660711288452148 -0.9665396809577942 -0.205328106880188
1.172595739364624 -0.23736685514450073 6.0848846435546875
-1.6109635829925537 -1.017264485359192 -4.319780349731445
-0.913153886795044 0.08734628558158875 4.089922904968262
2.7510011196136475 -0.08463580906391144 3.6725761890411377
2.1594409942626953 -0.8097341656684875 0.6312560439109802
-4.276400566101074 -1.1558514833450317 -4.09182071685791
-0.4047239422798157 -0.04007818549871445 5.544676780700684
3.373915672302246 -0.9334182143211365 -1.986500859260559
3.8480405807495117 -0.23474963009357452 5.1290717124938965
-2.0299160480499268 -0.9431478381156921 -4.004504680633545
-2.614424705505371 -1.1032239198684692 -4.854850769042969
0.418323278427124 -0.23551177978515625 6.2930588722229
3.838956356048584 -0.915458083152771 0.02951233647763729
3.241424322128296 -0.0876312404870987 4.243657112121582
0.9711224436759949 -0.756799042224884 1.0256826877593994
3.014920949935913 -0.8763766884803772 -0.1668464094400406
3.2718825340270996 -0.39733031392097473 6.134714126586914
0.13194243609905243 -0.03408251330256462 5.376405715942383
1.8340235948562622 -0.8867501616477966 -3.092618465423584
-6.041961193084717 -0.2233477234840393 0.3636285960674286
1.5820252895355225 -0.9176643490791321 -3.835604429244995
1.2099652290344238 -0.01867685839533806 4.043590068817139
-2.453795909881592 -0.0063782744109630585 4.175953388214111
3.0821471214294434 -0.8979770541191101 -0.850960910320282
-1.2722249031066895 -0.9730547666549683 0.0508892759680748
5.542065143585205 -1.2239327430725098 -3.724517583847046
-2.660681962966919 -0.7975009083747864 0.9149181246757507
3.8821215629577637 -0.9387869834899902 -1.2721832990646362
3.126669406890869 -0.33058103919029236 5.711677551269531
-2.872504472732544 -1.0624700784683228 -4.413115978240967
3.408907890319824 -0.0819927379488945 3.0493454933166504
0.9207165241241455 -1.020574688911438 -5.489989280700684
1.2321081161499023 -0.20921920239925385 5.881505966186523
-3.1377713680267334 -0.9906473159790039 -3.291309118270874
-0.3860170245170593 -0.5606392621994019 -7.1617326736450195
0.6430509686470032 -0.26110729575157166 6.316525459289551
-1.2008434534072876 0.01556960679590702 4.995201587677002
2.0717945098876953 -0.1178431585431099 3.27974796295166
0.14340253174304962 -0.909428060054779 -2.251828193664551
0.200627863407135 -9.513703116681427e-05 5.1791815757751465
-0.6981145739555359 -1.1158287525177002 -5.812017917633057
0.9637472629547119 -0.9123148322105408 -3.7354090213775635
1.5587717294692993 -0.8055552244186401 -0.7869924306869507
1.402938723564148 -0.9081193804740906 -3.4672117233276367
0.13946467638015747 -0.8468183279037476 -0.5978085994720459
2.1902236938476562 -0.09137381613254547 3.4754509925842285
3.2288920879364014 -0.9236238598823547 -1.5213215351104736
-0.7383266091346741 0.08462013304233551 4.532677173614502
-4.678604602813721 -1.1356488466262817 -4.32123327255249
0.5850023031234741 -0.74696946144104 1.0429000854492188
-2.30115008354187 -8.46962138894014e-05 3.3888840675354004
0.2727094888687134 -1.1056201457977295 -6.011727333068848
1.4654210805892944 -0.9414569735527039 -4.728150844573975
-1.6493169069290161 -1.1037452220916748 -5.714016914367676
-0.06901441514492035 -0.8661353588104248 -2.8792028427124023
-2.742269277572632 -0.8550904393196106 0.5519518256187439
-0.3411989212036133 -0.8558769822120667 0.05282218009233475
2.1535279750823975 -0.8773769736289978 -3.0915398597717285
-2.6330103874206543 -0.03166428953409195 3.600628137588501
3.217434883117676 -0.8738255500793457 0.48188623785972595
0.4870240092277527 -0.840083658695221 -0.5607307553291321
-4.530875205993652 -1.0767494440078735 -2.9686760902404785
2.3781282901763916 -1.0659719705581665 -4.953312873840332
2.116560459136963 -0.8092496991157532 0.6647417545318604
0.07051759958267212 -0.5916998386383057 -7.340273857116699
-5.582714080810547 -0.1918533444404602 0.9867742657661438
1.9850620031356812 -0.04841576889157295 3.978116512298584
-2.1602303981781006 -0.9135720133781433 -3.793797254562378
2.1525635719299316 -0.24230143427848816 2.8106393814086914
-1.7432526350021362 -0.8828645944595337 -1.5408583879470825
-1.4042589664459229 -0.9310328364372253 -3.9360947608947754
-6.215417861938477 -0.3602079153060913 -0.5856537818908691
-1.4390250444412231 -0.9277506470680237 -2.5637032985687256
3.973102569580078 -1.182594656944275 -4.48136568069458
0.041296157985925674 -0.8689027428627014 -2.9724929332733154
4.78232479095459 -1.167542815208435 -3.4847257137298584
0.3245677053928375 -0.000919292273465544 5.077016353607178
1.1991015672683716 -0.038681283593177795 3.7683515548706055
-0.09506186842918396 -0.8881577253341675 -1.1686545610427856
-1.1417250633239746 0.09388300031423569 4.670624256134033
1.0236945152282715 -0.8955908417701721 -3.9234766960144043
-3.571841239929199 -1.1257745027542114 -4.387362003326416
1.5366013050079346 -0.8039535880088806 0.5895658135414124
1.5180299282073975 -0.9696455001831055 -4.866170883178711
4.2420525550842285 -0.16326206922531128 4.691463947296143
0.9898380041122437 -0.02544388175010681 4.558258533477783
0.6993416547775269 -1.0550073385238647 -5.987229347229004
-3.18831729888916 -1.1096758842468262 -4.624709129333496
-3.1454391479492188 -0.8183019161224365 0.4612346291542053
-1.35895574092865 -1.084391474723816 -6.016117095947266
2.443817377090454 -0.7308056950569153 1.1565438508987427
-0.31913766264915466 -0.7497825622558594 1.3898370265960693
-1.4797961711883545 -0.17112012207508087 6.089369297027588
0.07025443762540817 -0.9096052646636963 -1.8473742008209229
0.6531184315681458 -0.8654375672340393 -2.743189811706543
0.700635552406311 -0.9139949679374695 -3.790548086166382
-1.4900692701339722 -1.0011277198791504 -4.303813457489014
-1.6952829360961914 0.05031730979681015 3.589427947998047
-1.411708950996399 -0.980442225933075 -4.2437052726745605
-1.89249849319458 -0.8115997910499573 1.007865071296692
0.778896152973175 0.0006649288116022944 5.113773345947266
-3.3185524940490723 -0.8384789228439331 -0.31769487261772156
-1.7792216539382935 -0.805818498134613 1.0729769468307495
0.2164420485496521 -0.8450623154640198 -0.6356502771377563
4.905048370361328 -0.9582656621932983 -0.711410403251648
-4.623504161834717 -1.0944054126739502 -3.10441255569458
-0.730854868888855 -0.9166624546051025 -3.893799066543579
1.2676836252212524 -0.8011736273765564 -1.479079246520996
0.30498531460762024 -0.8460718989372253 -0.9913106560707092
5.67103910446167 -0.1953611671924591 2.802851915359497
1.459949016571045 -0.8972762823104858 -2.5531327724456787
-5.203299045562744 -1.0857875347137451 -1.8397921323776245
-0.25590911507606506 -0.8642381429672241 -0.6098478436470032
-0.22756218910217285 -0.8577427268028259 -2.726003646850586
2.185025215148926 -0.0734439268708229 4.506047248840332
-6.792428016662598 -0.5320050716400146 -2.791372060775757
-4.7610297203063965 -0.10610076785087585 1.8152581453323364
-4.463369369506836 -1.0250389575958252 -2.3366904258728027
-2.516157627105713 -0.020942777395248413 3.9965085983276367
1.928066611289978 -0.8945310115814209 -1.9100428819656372
1.630961537361145 -0.8997322916984558 -2.7742068767547607
-1.1929032802581787 -0.9555773735046387 -4.252739429473877
1.2584553956985474 -0.9584388732910156 -4.917482376098633
0.08087241649627686 -0.7434086799621582 0.8503521680831909
-1.5142238140106201 -0.9454923272132874 -2.779374837875366
4.671000957489014 -0.17629306018352509 4.659875392913818
2.9494872093200684 -0.20122270286083221 5.074675559997559
1.347514271736145 -0.8201457858085632 -0.015253997407853603
2.597723960876465 -0.17343229055404663 5.091985702514648
-0.23737967014312744 -0.9015498161315918 -2.1417527198791504
5.13939094543457 -0.10219313949346542 3.583220958709717
4.1207075119018555 -0.9560741186141968 -1.2554951906204224
-2.1956875324249268 0.024985704571008682 4.271324157714844
-1.9717504978179932 0.04819776862859726 4.246771812438965
0.22118954360485077 -0.8984805941581726 -2.337968349456787
-1.1036142110824585 -0.8945379257202148 -0.7418388724327087
-0.3480752110481262 0.014779298566281796 5.163472652435303
2.131279230117798 -0.8931917548179626 -2.65938138961792
-1.0273715257644653 -0.9126657843589783 -4.001376628875732
-5.02292537689209 -1.1042888164520264 -3.3460915088653564
-4.381366729736328 -0.9717845320701599 -1.6041407585144043
0.5951206088066101 -0.9019988179206848 -3.270914316177368
-0.5763639807701111 -0.17103704810142517 6.279823303222656
-1.275640606880188 -1.0823177099227905 -5.150753974914551
-6.760738849639893 -0.35479262471199036 -1.141369104385376
0.14413326978683472 -0.9093913435935974 -1.9805972576141357
-1.2651278972625732 -0.9290941953659058 -3.464909076690674
2.8424253463745117 -1.0863368511199951 -4.831826210021973
0.8076937198638916 -0.8399835824966431 -0.546265721321106
-6.460047245025635 -0.25791651010513306 -0.40731504559516907
1.295249342918396 -0.9126279354095459 -3.503934621810913
3.6542303562164307 -0.9109046459197998 0.07610923796892166
-1.2449172735214233 -0.9532487988471985 -0.2024064064025879
1.239246129989624 -0.029930289834737778 4.381179332733154
-2.5423965454101562 -0.006585768423974514 4.473940372467041
1.874542236328125 -0.9209335446357727 -2.222424268722534
-0.08482314646244049 -1.0640100240707397 -5.5607523918151855
-1.098961353302002 -0.9159753322601318 0.38490718603134155
-0.5867570042610168 -0.9213423728942871 -1.3922784328460693
-3.2508771419525146 -0.9964061975479126 -2.2852766513824463
0.1962134838104248 -0.9039990305900574 -2.021242380142212
0.37628090381622314 -0.005342809017747641 5.219189643859863
0.19126982986927032 -0.9253718256950378 -4.104366779327393
-4.921147346496582 -1.0640077590942383 -2.4221951961517334
0.4024626314640045 -0.27879786491394043 6.555328845977783
2.14563250541687 -0.34220921993255615 6.357747554779053
0.8327529430389404 -0.8171558380126953 -0.10717640817165375
1.8047934770584106 -0.03969039395451546 4.035345077514648
-1.294522762298584 -0.10593453794717789 5.6346235275268555
0.8114954829216003 -0.9062579870223999 -3.2855634689331055
-4.254215240478516 -1.167820692062378 -4.233000755310059
0.35627344250679016 -0.9187508225440979 -3.9718995094299316
0.13940295577049255 -0.8789798617362976 -2.553906202316284
-2.2841811180114746 -1.0688396692276 -4.651115894317627
1.4803848266601562 -0.8030067086219788 0.5381072163581848
-2.6632285118103027 -0.9670694470405579 -3.489971876144409
2.6659083366394043 -0.08664002269506454 3.5280182361602783
-1.2616873979568481 -0.8465924859046936 0.8523139357566833
-0.7453756332397461 -0.7942686676979065 1.1642513275146484
2.119680166244507 -0.680290162563324 1.4890010356903076
0.8265582323074341 -0.6706059575080872 -7.30201530456543
1.3016502857208252 -0.8016513586044312 -1.163401484489441
-5.235886573791504 -0.017352527007460594 2.208239793777466
-0.3662523925304413 -0.9171656966209412 -1.6427587270736694
2.985584020614624 -0.9776232242584229 -3.5440285205841064
-1.3506146669387817 -0.9282719492912292 -3.443903684616089
-4.913711071014404 -0.015001947991549969 2.2275023460388184
-1.0720577239990234 -0.7792419791221619 1.378247857093811
-3.5149683952331543 -1.1495399475097656 -4.719079494476318
1.159181833267212 -0.3506533205509186 6.546300411224365
-1.318882942199707 -0.1726745367050171 6.178894996643066
2.401019811630249 -0.8824887275695801 -1.6915788650512695
3.1266942024230957 -0.9877656102180481 -3.595221996307373
0.31888872385025024 -0.9705944657325745 -4.960208415985107
4.352451801300049 -0.9053539633750916 -0.2886088788509369
1.3576821088790894 -0.8189564347267151 -0.707210898399353
1.4309090375900269 -0.8154266476631165 -0.6825106143951416
5.068570137023926 -0.9985036849975586 -0.8547310829162598
-0.5606005191802979 -1.0601632595062256 -5.191834449768066
-3.371462821960449 -0.7768924236297607 -6.094346046447754
2.2624406814575195 -0.712627649307251 1.278765320777893
3.9522743225097656 -0.9809010624885559 -1.7022379636764526
3.0025746822357178 -0.31032422184944153 5.6117658615112305
-0.926314115524292 -0.9262781143188477 -3.2706191539764404
3.5156421661376953 -0.9045101404190063 0.4633747935295105
-0.6400775909423828 -0.8588320016860962 -2.7411203384399414
1.672575831413269 -0.8908822536468506 -2.896322250366211
-2.748670816421509 -1.0183298587799072 -2.572096824645996
-3.508206605911255 -0.9684087038040161 -2.7793312072753906
0.9398479461669922 -0.7168967127799988 1.7904733419418335
-6.526351451873779 -0.3005997836589813 1.6000131368637085
2.926828384399414 -1.0015677213668823 -4.097412109375
0.022241346538066864 -0.8479923605918884 -0.4813521206378937
-0.031941402703523636 -0.946038007736206 -4.37986421585083
-1.6918116807937622 -0.9980089068412781 -4.230777740478516
1.360706090927124 -0.8864039778709412 -2.534615993499756
-0.4941476881504059 -0.9189984202384949 -4.036456108093262
-2.3543577194213867 -0.010728158988058567 3.529315710067749
0.7807925343513489 -0.8023746609687805 0.08540929108858109
2.1517627239227295 -0.058666668832302094 3.8016114234924316
5.604395389556885 -1.1362390518188477 -1.9860538244247437
-5.1785054206848145 -1.107804536819458 -3.066558599472046
2.6698684692382812 -0.8434012532234192 -2.571115016937256
-0.9560024738311768 0.04880758747458458 4.921008586883545
-0.8189752697944641 -0.18334302306175232 6.358543395996094
-1.7677758932113647 -1.06684410572052 -4.766215801239014
1.5120385885238647 -0.041508276015520096 4.380093574523926
-3.8967158794403076 -1.14541494846344 -4.252857208251953
-1.585923194885254 -0.9254153370857239 -3.8025319576263428
2.026970624923706 -0.05036256089806557 4.109394073486328
-3.3878579139709473 -0.994090735912323 -2.4641640186309814
0.7556537985801697 -0.8579859733581543 -2.1110997200012207
-1.3087387084960938 0.09721396118402481 4.284999847412109
1.303666353225708 -0.8268923759460449 -0.5706005096435547
3.7198424339294434 -0.06929589062929153 4.078338623046875
-0.635327160358429 -0.9143235683441162 -1.268676519393921
-0.9375513792037964 -0.9076763391494751 -2.9201061725616455
-0.39287394285202026 0.0013225028524175286 3.6581974029541016
-0.0571259967982769 -0.8740081191062927 -2.580845594406128
-2.3224072456359863 -0.9189502596855164 -3.6456055641174316
-4.572730541229248 -1.1494474411010742 -4.258030414581299
5.4782185554504395 -0.23462286591529846 3.8200387954711914
-6.7159013748168945 -0.2078319787979126 0.11372767388820648
4.213013648986816 -0.08978085964918137 3.8816068172454834
-1.253150463104248 -0.8340983390808105 0.9401749968528748
-1.345238208770752 -0.9751855731010437 0.02635701559484005
-1.185713768005371 -0.9173600077629089 -3.7893226146698
1.4940447807312012 -0.834449052810669 -1.7384897470474243
1.897406816482544 -0.812591552734375 -1.0681214332580566
1.418761968612671 -0.887921154499054 -2.7946391105651855
1.4575527906417847 -0.8874077796936035 -2.9073352813720703
3.2980058193206787 -1.1746152639389038 -5.602059841156006
0.5339349508285522 -0.8420085906982422 -0.6277648210525513
1.2780882120132446 -0.20010551810264587 5.787965774536133
0.6831426024436951 -0.7607113122940063 0.586373507976532
4.6637492179870605 -0.9708967208862305 -0.926910936832428
5.445497512817383 -0.20346768200397491 3.637547731399536
2.0544064044952393 -0.3203469216823578 6.324947357177734
-1.984599232673645 -0.9094168543815613 -3.112232208251953
-1.693852424621582 -0.9139110445976257 -3.714637279510498
4.661814212799072 -0.09884226322174072 4.025702476501465
-3.3450677394866943 -1.0226960182189941 -3.7918503284454346
-2.4507508277893066 -1.1421939134597778 -5.507201194763184
0.19374820590019226 -0.8545606732368469 -1.12303626537323
-3.627025604248047 -1.1621044874191284 -4.777134418487549
-3.0315964221954346 -1.0117650032043457 -2.471766471862793
0.6670910716056824 -0.7672509551048279 0.5002784729003906
-4.914032936096191 -0.28304824233055115 4.335346698760986
2.6544265747070312 -0.07681119441986084 3.8904364109039307
2.5694525241851807 -0.8206050395965576 0.43411630392074585
2.7242233753204346 -1.0954196453094482 -5.000460147857666
0.7396371364593506 -0.889182448387146 -4.533389568328857
-4.172515869140625 -0.9353858232498169 -1.4868543148040771
3.483279228210449 -0.8897102475166321 -0.857539176940918
0.6416468024253845 -1.054654836654663 -5.847862243652344
0.9300744533538818 -0.838241457939148 -0.48821350932121277
-0.8783215880393982 -1.0879547595977783 -5.266528129577637
0.9390329718589783 -0.8855284452438354 -3.0430331230163574
0.7314290404319763 -0.31631559133529663 6.584649562835693
-1.8825236558914185 -1.0963752269744873 -5.261113166809082
-2.6413822174072266 -0.863582968711853 0.3423939049243927
-3.5464301109313965 -0.9553158283233643 -2.000274419784546
4.778995513916016 -1.0353600978851318 -1.832104206085205
0.3655460476875305 -0.8825098276138306 -1.8954616785049438
-1.3947004079818726 -0.8597385287284851 -1.8902209997177124
1.181689739227295 -1.0542452335357666 -5.790887355804443
3.2491719722747803 -0.8910751938819885 -0.2543621361255646
-1.483479619026184 -1.101275086402893 -5.567957878112793
0.2906058132648468 -0.7670592665672302 0.4762780964374542
-5.362442970275879 -1.0815383195877075 -2.7114996910095215
1.1800916194915771 -0.7797783017158508 0.6150842308998108
2.893824577331543 -1.0089023113250732 -4.154782772064209
-0.29517215490341187 -0.8596161007881165 -0.2666695713996887
-1.5286535024642944 -0.9221534132957458 -3.450265884399414
-5.906973361968994 -0.19936352968215942 1.3909200429916382
-1.1191742420196533 -1.074839472770691 -5.01823616027832
-4.391209125518799 -1.122992992401123 -3.650301456451416
0.7044739723205566 -0.750390887260437 0.7916192412376404
0.966828465461731 -0.9003307819366455 -3.2195653915405273
-2.6869843006134033 -1.0129450559616089 -2.5673818588256836
-2.741224765777588 0.037526387721300125 3.15211820602417
2.69529390335083 -0.32300639152526855 5.722720623016357
-1.3493499755859375 -1.1015676259994507 -5.504739761352539
-1.5227160453796387 -0.6860827803611755 1.698429822921753
0.6491788625717163 -0.9512350559234619 -4.951488971710205
-5.174712181091309 -1.0684094429016113 -2.3483595848083496
-5.8600687980651855 -0.178605854511261 1.4980093240737915
1.0722383260726929 -0.7895261645317078 0.3937634825706482
0.3404359817504883 -0.9211851358413696 -3.862961530685425
-0.9511321783065796 -0.8965439796447754 0.39813727140426636
1.3696297407150269 -0.2856450378894806 6.286175727844238
1.2684919834136963 -0.8555788993835449 -2.063387155532837
5.119601249694824 -1.0739635229110718 -1.693422555923462
0.5094110369682312 -0.8106203675270081 -0.08483505249023438
3.935750722885132 -0.057715266942977905 3.30987286567688
-0.024229951202869415 -0.8784610629081726 -1.1312956809997559
0.014159186743199825 -0.025824330747127533 5.3701252937316895
-2.5465853214263916 -1.1207084655761719 -5.056875228881836
-1.7942646741867065 0.06986316293478012 4.368145942687988
1.8420602083206177 -0.042404528707265854 4.160883903503418
6.893497467041016 -0.40942585468292236 0.9349381327629089
0.5308288335800171 -1.070257544517517 -5.903077602386475
-4.283512115478516 -1.0285487174987793 -2.6711068153381348
-1.5070223808288574 -0.898239016532898 -0.9693693518638611
0.6043155193328857 -0.8846921324729919 -4.169045448303223
-4.342456340789795 -1.0372405052185059 -2.7050912380218506
0.8175023198127747 -0.9589405059814453 -5.019692420959473
-2.40287709236145 -0.8672164678573608 0.40382683277130127
-0.30118826031684875 -0.8888778686523438 -2.2331390380859375
3.0896687507629395 -0.9322100281715393 -2.928469657897949
1.0301026105880737 -0.9146496653556824 -3.408867835998535
1.2021410465240479 -0.051477350294589996 5.078214645385742
-1.8697233200073242 0.017728464677929878 3.2181284427642822
6.018799781799316 -0.22851718962192535 1.7059868574142456
-0.9698523879051208 0.007975324057042599 5.143424987792969
-2.005936622619629 -1.0634182691574097 -4.638131618499756
1.1785244941711426 -0.7766883969306946 1.2778993844985962
4.718202114105225 -1.216504454612732 -3.870285987854004
-0.2205352634191513 -0.8560693860054016 -0.30726760625839233
-3.328702211380005 -0.8146035671234131 0.18955257534980774
0.15413904190063477 -0.8924362659454346 -1.7258161306381226
-0.8729971647262573 -0.8440453410148621 -2.1637465953826904
5.350982189178467 -0.1810317188501358 3.7361185550689697
2.677884101867676 -0.10230045020580292 3.2975759506225586
0.7335502505302429 -0.8211392760276794 -0.19168831408023834
4.418970108032227 -0.11710888147354126 4.310362815856934
0.7890657782554626 -0.8578507900238037 -2.2729058265686035
-0.3515222668647766 -0.8157767057418823 0.4947071969509125
-0.8742417097091675 -0.924354076385498 -3.524627923965454
-1.4526995420455933 0.08051469177007675 3.9404118061065674
0.4354100525379181 -0.8447973132133484 -0.734501302242279
1.4085079431533813 -0.2232268899679184 6.047526836395264
1.8584115505218506 -0.050310421735048294 4.328318119049072
-4.013991832733154 -1.104324221611023 -3.7453982830047607
-0.24336397647857666 -0.08704151213169098 5.769020080566406
-2.456599712371826 -0.9847725629806519 -4.144040107727051
1.3800795078277588 -0.8212994933128357 -0.5899608135223389
0.6589998602867126 -0.8238936066627502 -1.4660688638687134
4.339087963104248 -0.12198315560817719 4.346826553344727
1.596048355102539 -0.9061369895935059 -2.203052520751953
-6.750816822052002 -0.20944857597351074 -0.10292546451091766
-0.11395551264286041 0.02622775174677372 4.8908162117004395
-0.6395012736320496 -0.9467888474464417 -4.497836589813232
0.8579205274581909 -0.8640150427818298 -4.360753059387207
2.683464765548706 -0.836884081363678 -2.313295364379883
-0.859843909740448 -0.8905285000801086 -0.5205463767051697
0.6789535284042358 -0.015351641923189163 3.8988616466522217
-3.1290409564971924 -1.1085872650146484 -4.671355724334717
1.1920654773712158 -0.27954986691474915 6.25685977935791
-0.8761070370674133 0.06780830770730972 3.849201202392578
-5.805079936981201 -0.2529888451099396 3.412510871887207
-6.5105414390563965 -0.3070789575576782 1.7920353412628174
-0.6250889897346497 -0.8569051623344421 -2.237952947616577
-5.585099220275879 -1.0097177028656006 -2.430634021759033
-6.479851722717285 -0.1841088831424713 0.09583959728479385
3.2979118824005127 -0.8929834365844727 -0.21311821043491364
1.9865857362747192 -0.16677844524383545 5.109694957733154
-3.0453245639801025 -1.0558820962905884 -4.263827323913574
0.9148281216621399 -0.9282739162445068 -3.566270351409912
-4.006944179534912 -1.164370059967041 -4.354647159576416
0.17457681894302368 -0.19728565216064453 6.198278427124023
2.117417573928833 -0.6901299953460693 -6.835214138031006
3.4411137104034424 -0.9420675039291382 -1.664270281791687
-0.036027587950229645 -0.8659682273864746 -2.8283116817474365
-0.8773000836372375 -0.8782168030738831 -2.6748485565185547
-5.328779697418213 -1.061623215675354 -2.506596803665161
-0.36590030789375305 -0.8564836382865906 -2.7969729900360107
-1.630698800086975 -1.075024127960205 -5.027360916137695
1.7563022375106812 -0.8109464645385742 -1.323352575302124
-3.836428642272949 -1.1577645540237427 -4.454427719116211
-1.7974119186401367 -1.0647501945495605 -4.698006629943848
-6.158087253570557 -0.18887010216712952 0.6125244498252869
0.6754593253135681 -0.7595328092575073 1.361345887184143
-1.9647241830825806 -0.901634156703949 -3.5827016830444336
2.755823850631714 -0.8717613816261292 -0.47828638553619385
1.2788869142532349 -0.8059131503105164 -1.0983871221542358
-2.387599229812622 -0.0012155883014202118 4.149277210235596
2.1966652870178223 -0.07540357857942581 3.6251749992370605
0.7402012944221497 -0.23900233209133148 6.140328884124756
-2.3390209674835205 -0.9216792583465576 -3.78751802444458
-0.5310384631156921 -1.0997123718261719 -6.155468463897705
-4.515322685241699 -1.154754400253296 -4.1995978355407715
-0.25771564245224 -1.0500608682632446 -5.41857385635376
-6.923633575439453 -0.3818374276161194 -1.0581021308898926
2.0491788387298584 -0.770420491695404 1.023453712463379
0.4751720428466797 -0.7578527331352234 1.5056346654891968
1.150269627571106 -0.9519999027252197 -4.9193434715271
-2.13550066947937 -1.0679042339324951 -4.676392555236816
-2.206010103225708 -0.041642144322395325 4.856210708618164
0.27106085419654846 -0.8514900803565979 -1.240464210510254
2.2380518913269043 -0.2854641377925873 5.8121466636657715
-2.4007787704467773 -1.126652479171753 -5.775740146636963
2.713332176208496 -0.957621157169342 -3.495481252670288
-0.1785324364900589 0.03265451639890671 3.9177863597869873
1.1186059713363647 -0.17776066064834595 5.7363739013671875
2.331341028213501 -0.8702411651611328 -1.3285373449325562
3.3791370391845703 -0.20927192270755768 4.867197513580322
4.705634117126465 -0.11681882292032242 4.277023792266846
2.4726459980010986 -0.07127011567354202 3.918989896774292
2.859853744506836 -1.1122283935546875 -5.030470371246338
1.9456737041473389 -0.9644145369529724 -4.422384738922119
-0.5799133777618408 0.0755217969417572 4.142836093902588
-0.18672960996627808 -0.8439637422561646 0.0594543032348156
0.5388983488082886 -1.0312453508377075 -5.5629496574401855
3.067113161087036 -1.0629537105560303 -4.532148361206055
-1.8533321619033813 0.02985564060509205 3.415966510772705
-1.0654348134994507 -0.8742631077766418 0.6220731139183044
4.060808181762695 -0.9140353798866272 -0.4246762692928314
-0.7010263800621033 -1.0599459409713745 -5.032409191131592
-1.232790470123291 0.08549776673316956 3.9683070182800293
2.1212759017944336 -0.8825466632843018 -1.7447195053100586
-1.1365879774093628 -0.8446341156959534 -1.987032413482666
-1.054708480834961 -0.933274507522583 -3.329638719558716
0.9119142889976501 -0.7655874490737915 1.2785210609436035
1.3273085355758667 -0.8008946776390076 -1.466154932975769
-2.4116368293762207 -0.9308469891548157 -3.4901416301727295
1.1995763778686523 -0.9000137448310852 -3.9002857208251953
2.72591495513916 -0.985346257686615 -3.741386890411377
3.110028028488159 -0.09577666223049164 4.277475357055664
-1.9357044696807861 0.04860324412584305 4.42399787902832
2.793712854385376 -0.9230209589004517 -3.1604671478271484
0.9307030439376831 -0.7667526006698608 1.3317160606384277
1.1731078624725342 -0.03488470986485481 4.5689215660095215
-1.550850749015808 -0.9032583832740784 -2.172427177429199
-1.3322367668151855 0.06647943705320358 3.68329119682312
-0.6917553544044495 -1.0853307247161865 -6.195839881896973
-1.071674108505249 -0.9176965355873108 -4.064276695251465
0.030258040875196457 -0.9005445241928101 -1.6425002813339233
3.3388688564300537 -0.894640326499939 -0.07836484163999557
-0.43239420652389526 -1.0520061254501343 -5.252734184265137
0.6447314023971558 -0.8662881851196289 -2.118927240371704
-0.19056373834609985 0.0457652322947979 4.593823432922363
-3.048556327819824 -1.1341261863708496 -5.466897487640381
-1.693695068359375 0.005813040304929018 3.1918022632598877
-0.5967127680778503 -0.8554456233978271 -2.6973462104797363
-0.7233256697654724 -0.9158666133880615 -3.3747189044952393
1.6404430866241455 -0.9087384939193726 -3.527566432952881
-1.83363676071167 -1.071819543838501 -4.873566150665283
1.2352582216262817 -0.8110010623931885 -1.0364320278167725
-0.14434190094470978 -0.9088102579116821 -1.4615370035171509
2.5596702098846436 -0.8680753707885742 -1.9182753562927246
5.571151256561279 -0.1630285233259201 2.7370028495788574
-3.9227495193481445 -1.0320628881454468 -3.3736989498138428
3.8308911323547363 -0.9768960475921631 -1.8317596912384033
0.028908809646964073 -0.7409911751747131 1.12813401222229
-0.38594478368759155 0.031196562573313713 5.006286144256592
-0.4471870958805084 -1.1122913360595703 -6.092658042907715
-2.536893844604492 -1.1135224103927612 -4.986107349395752
-1.3334968090057373 -0.8485866189002991 -1.728979468345642
1.6209115982055664 -0.8114259243011475 -0.430940181016922
0.2210177481174469 -0.9870849251747131 -5.088829517364502
-0.05951304733753204 -0.8861096501350403 -2.4708051681518555
0.7078476548194885 -0.9063531756401062 -3.887478828430176
0.06326674669981003 -0.8333470225334167 -0.16986891627311707
3.55934739112854 -0.22874975204467773 5.046756744384766
0.41285812854766846 -0.7763074040412903 0.34421661496162415
-3.000286340713501 -0.6990082859992981 -6.432102203369141
-2.756596803665161 -0.8571627736091614 0.028120432049036026
0.8554195761680603 -0.8169940710067749 -1.2655301094055176
1.2933660745620728 -0.21999932825565338 5.977437496185303
-1.3086658716201782 -0.9206424355506897 -3.8295342922210693
1.688472032546997 -0.03852347284555435 4.180184364318848
2.324240207672119 -1.0122580528259277 -4.1128387451171875
0.7275083065032959 -0.7869529724121094 0.2706497609615326
2.2737338542938232 -0.1700749546289444 5.110783100128174
0.24661993980407715 -0.02066214382648468 3.701035261154175
0.1748383343219757 -0.8825315237045288 -3.137363910675049
-2.5879814624786377 -0.951897144317627 -3.6983118057250977
-0.6310299038887024 -0.9108843803405762 -3.4085211753845215
-1.9056559801101685 -0.9148682951927185 0.10314547270536423
-0.127375066280365 -0.7593421339988708 0.7885114550590515
1.3327966928482056 -0.9392933249473572 -4.780082702636719
2.355161666870117 -0.8155416250228882 0.4749324321746826
0.5397582054138184 -0.9210205078125 -3.5345332622528076
-4.344082832336426 -1.1118439435958862 -3.5138156414031982
3.668585777282715 -0.1369370073080063 4.445433616638184
0.3244778513908386 -0.8810698986053467 -3.08553409576416
-0.3237771987915039 -1.119083046913147 -5.938503742218018
-6.193853378295898 -0.23798790574073792 1.4291834831237793
3.181436061859131 -0.9145323634147644 -1.903929352760315
3.780203104019165 -0.056685566902160645 3.1041269302368164
0.030415814369916916 -0.9234509468078613 -3.7906126976013184
1.6768656969070435 -0.18774977326393127 3.039531707763672
-0.06967300921678543 -0.9067994356155396 -1.5940014123916626
4.6320481300354 -0.09363382309675217 3.908487558364868
-4.14306116104126 -0.9274341464042664 -1.3386001586914062
3.8673601150512695 -1.0811752080917358 -3.8565640449523926
0.5314818024635315 -0.9128895998001099 -4.593851089477539
-3.622723340988159 -0.9901275038719177 -3.453542709350586
1.48326575756073 -1.076284408569336 -5.531972408294678
-0.11097363382577896 -0.8736112117767334 -0.8793913125991821
3.028838872909546 -0.9089870452880859 -1.203324794769287
-2.0333731174468994 -1.102144718170166 -5.176198482513428
-3.299133777618408 -1.1303740739822388 -4.740322113037109
3.4791057109832764 -0.07896919548511505 3.480729818344116
-1.1120023727416992 0.0747642070055008 3.8165392875671387
-2.4531352519989014 -1.129282832145691 -5.216236591339111
-1.7567870616912842 -0.10087485611438751 5.562874794006348
1.6119824647903442 -0.9134370684623718 -4.255484580993652
5.002517223358154 -1.2538100481033325 -4.146557331085205
-2.330408811569214 -1.1393481492996216 -5.615068435668945
-2.193122625350952 -0.8766668438911438 0.2268085777759552
1.2553337812423706 -0.038557421416044235 4.543031692504883
-1.8932026624679565 -0.9545089602470398 -0.6540598273277283
0.2041582614183426 -0.8602219820022583 -1.31258225440979
0.35257580876350403 -0.8433336615562439 -0.941518247127533
-1.9968925714492798 -0.9537153840065002 -2.3180251121520996
2.294645071029663 -0.8147846460342407 0.49046480655670166
6.234279632568359 -0.33438828587532043 2.590749502182007
-0.890860378742218 -0.893164873123169 -0.4680618643760681
-1.712300419807434 0.0602794848382473 3.7775979042053223
1.62352454662323 -0.9378546476364136 -4.613448143005371
-1.2650014162063599 -0.920462429523468 -3.605865955352783
4.213493824005127 -0.11351955682039261 4.268596172332764
0.969061017036438 -0.8919718265533447 -4.6159868240356445
-1.2780581712722778 -0.9218010306358337 -2.666079044342041
-0.3396080434322357 -0.8909630179405212 -0.9090014696121216
3.95353364944458 -0.10966448485851288 4.321439743041992
-4.155484676361084 -1.1282033920288086 -3.863935708999634
-0.6311787962913513 -0.9878356456756592 -4.670303821563721
1.090396761894226 -0.2055111676454544 5.874556541442871
4.3596272468566895 -0.09722265601158142 3.965940475463867
2.983944892883301 -1.1695842742919922 -5.405490398406982
4.822124004364014 -0.09118428081274033 3.326789140701294
-1.4390133619308472 -1.0954794883728027 -5.440335273742676
4.663487434387207 -1.1124821901321411 -2.414355516433716
2.727823257446289 -0.826209306716919 0.47551730275154114
-0.9490789771080017 -0.9100643396377563 -3.9949851036071777
-1.830463171005249 -0.13175798952579498 5.821112155914307
2.634030818939209 -0.8666907548904419 -1.9542855024337769
3.6726627349853516 -0.9646828770637512 -2.0989739894866943
-0.8779733777046204 0.05151806026697159 3.7174973487854004
-3.7560126781463623 -0.9650397896766663 -2.790189743041992
3.454071521759033 -0.9461677074432373 -1.8794782161712646
-4.073617935180664 -0.9488988518714905 -1.9667290449142456
-2.806276559829712 0.0032268203794956207 3.380561113357544
4.044106960296631 -0.08577652275562286 4.067734241485596
0.668808102607727 -0.832068920135498 -1.6067575216293335
-1.556249737739563 -0.9391981363296509 -2.632772922515869
2.7217743396759033 -1.0369254350662231 -4.408160209655762
1.4893114566802979 -1.0626177787780762 -5.442764759063721
1.1217782497406006 -1.0514299869537354 -5.931304931640625
0.5898312926292419 -0.7166217565536499 1.7509820461273193
4.276156425476074 -0.23590803146362305 1.8708065748214722
-2.0638887882232666 -0.8770973086357117 0.3431892991065979
3.1880574226379395 -0.9106345176696777 -1.211609959602356
-3.4366819858551025 -1.0882998704910278 -4.179037094116211
3.6416873931884766 -0.059686329215765 3.811145544052124
0.38636255264282227 -0.88177889585495 -2.409714937210083
-5.316108226776123 -1.0919042825698853 -3.267188549041748
0.7865282297134399 -1.0017662048339844 -5.389267921447754
-0.9878433346748352 -0.9122743010520935 -4.061566352844238
1.2927907705307007 -0.8951595425605774 -3.9951674938201904
-0.25143420696258545 -0.7776491641998291 0.723482072353363
-1.0261656045913696 -0.9314307570457458 -3.222243547439575
2.7881219387054443 -0.9089623093605042 -3.0661189556121826
-0.09503006190061569 -0.7913613319396973 0.4860113561153412
-4.786315441131592 -1.1008740663528442 -3.7681195735931396
3.7470738887786865 -1.0731253623962402 -3.7259433269500732
1.352112889289856 -0.8019844889640808 -1.1149653196334839
3.730659008026123 -0.8984593152999878 -0.5868489146232605
0.7900494337081909 -0.7561125159263611 1.1477890014648438
1.4670265913009644 -0.09251320362091064 3.4382193088531494
0.681908130645752 -0.8769203424453735 -2.975966453552246
-4.315455436706543 -1.0229488611221313 -2.549436569213867
-0.4129254221916199 -0.9175693988800049 -3.6109163761138916
0.4636985957622528 -0.8748518228530884 -2.981433868408203
-4.887746334075928 -1.063346028327942 -2.4899189472198486
1.7325823307037354 -0.23807203769683838 6.050984859466553
1.5191535949707031 -0.7935092449188232 0.8079730868339539
-6.273718357086182 -0.2116587609052658 0.06712830811738968
-0.28522953391075134 -0.7745282649993896 0.8061730265617371
-6.700679302215576 -0.31121036410331726 1.0347079038619995
-0.022532913833856583 -0.868466854095459 -2.988255500793457
1.859919548034668 -0.23375914990901947 5.75085973739624
-4.44992208480835 -1.0096083879470825 -2.054257392883301
-0.40417370200157166 -0.9238095879554749 -3.7564406394958496
-1.0468586683273315 -1.0768225193023682 -5.048067092895508
-1.124703288078308 -1.0437326431274414 -4.752280235290527
2.0102720260620117 -0.9031172394752502 -2.6617772579193115
6.253413677215576 -0.34796905517578125 0.7840110659599304
1.2506004571914673 -0.8281621932983398 -0.28606054186820984
0.026091473177075386 -0.9077181816101074 -2.2313239574432373
-4.6092143058776855 -0.6866440773010254 -5.40376091003418
0.2812166213989258 -0.9132593274116516 -3.510505199432373
-6.237917423248291 -0.2641112506389618 2.163060426712036
-0.6968671679496765 -0.10629548132419586 5.918935298919678
-4.800998687744141 -0.8989428281784058 -0.9303572773933411
-0.09590007364749908 -0.9270859360694885 -3.8982627391815186
-1.994110345840454 -0.9037235379219055 -3.645320415496826
-0.31961318850517273 -0.8634375333786011 -2.5650250911712646
2.2262983322143555 -0.8897618651390076 -1.8325105905532837
-0.07613100856542587 -0.9177611470222473 -1.9362525939941406
0.9368675947189331 -0.7575729489326477 1.0710277557373047
2.492013454437256 -0.868868887424469 -2.901200294494629
1.1459624767303467 -0.8057618737220764 0.2055852711200714
2.7028238773345947 -1.0322961807250977 -4.354069232940674
-0.42710474133491516 -0.8225122094154358 0.5061025619506836
0.7361295223236084 -0.003316867630928755 4.12625789642334
-4.79123592376709 -1.0541130304336548 -2.195533037185669
4.197352886199951 -0.1372314691543579 4.478137969970703
-0.1385253518819809 -0.8571693897247314 -0.5500025749206543
-0.9994468092918396 -1.1055127382278442 -5.949963569641113
0.2530592083930969 -0.20681913197040558 6.213160514831543
-3.130225896835327 -1.0007812976837158 -2.930325746536255
-0.05158807337284088 -0.7492328882217407 1.3955426216125488
2.5226805210113525 -0.8615623712539673 -2.773282289505005
-4.642141819000244 -1.1238787174224854 -3.986462354660034
0.8070292472839355 -0.9257363080978394 -3.6259353160858154
3.930757522583008 -1.1019097566604614 -3.995896339416504
5.945312023162842 -0.24957862496376038 2.643437147140503
2.1140856742858887 -1.107358694076538 -5.858419418334961
2.482931613922119 -1.0022990703582764 -3.903531074523926
-1.9694386720657349 -0.7039155960083008 1.498800277709961
-0.6259304881095886 -1.0564095973968506 -5.0635576248168945
-0.8281213641166687 0.08495380729436874 4.102673530578613
0.4982406198978424 -0.8429766297340393 -0.8661432266235352
-5.860837936401367 -0.1840357780456543 1.133768081665039
2.188992738723755 -0.6947455406188965 1.3850648403167725
-3.785240411758423 -0.8518996834754944 -0.7752870321273804
0.5782074332237244 -0.8999612927436829 -4.033263683319092
2.3051981925964355 -0.8062868714332581 0.65627521276474
1.8300952911376953 -0.8972964882850647 -3.3748064041137695
4.003451824188232 -0.9530882835388184 -1.3192470073699951
-1.6214569807052612 0.05654779449105263 3.6083672046661377
1.0019093751907349 -0.7368029356002808 1.7219775915145874
-3.978774070739746 -0.9865806698799133 -2.574827194213867
5.4897356033325195 -0.8266309499740601 -4.832996845245361
-2.881791353225708 -0.8504265546798706 0.13965168595314026
4.172094345092773 -0.09992828965187073 4.13905143737793
1.8498724699020386 -0.805126428604126 -0.4915599524974823
-1.7572667598724365 -0.9319593906402588 -3.8864235877990723
1.9949156045913696 -0.6102451682090759 1.840449571609497
3.968626022338867 -0.9132022857666016 -0.6085813641548157
-0.33634063601493835 -0.8404597043991089 0.24917861819267273
-1.3043313026428223 -0.9658700823783875 -4.233648300170898
2.610109806060791 -0.08331579715013504 3.6061415672302246
0.34764784574508667 -0.7467429041862488 0.7286314368247986
-2.4011752605438232 -1.0542489290237427 -4.495306968688965
2.7597312927246094 -0.8325786590576172 -2.436695098876953
2.32633638381958 -0.8655800819396973 -1.2533963918685913
-0.45063507556915283 -0.8580693602561951 -2.5819153785705566
3.089810371398926 -1.181254506111145 -5.5022807121276855
0.11107064038515091 -0.9127557873725891 -2.054359197616577
-4.777833938598633 -0.01477354671806097 2.480616331100464
-4.527462482452393 -1.1300684213638306 -3.6833465099334717
2.9272613525390625 -0.8666194677352905 -2.5316176414489746
1.5089678764343262 -0.9019036889076233 -4.1444525718688965
3.6795613765716553 -0.9059903621673584 -1.0775461196899414
-0.3453795909881592 -0.879440188407898 -2.308626174926758
-3.5027918815612793 -0.21259990334510803 5.377105712890625
-3.806002616882324 -0.9701182246208191 -2.7525367736816406
5.350938320159912 -1.0838545560836792 -1.4781924486160278
-5.1893463134765625 -0.041544072329998016 2.637850284576416
-1.874804139137268 -0.884239912033081 0.4447496235370636
-0.412542462348938 -0.8620527982711792 -2.5151498317718506
-6.553008556365967 -0.32548069953918457 1.9047571420669556
-0.8479217886924744 -0.9214314818382263 -3.2999868392944336
-4.456703186035156 -0.987072229385376 -1.6580780744552612
-0.5641323924064636 -0.920275092124939 -1.4584254026412964
-1.7146223783493042 -0.9430351853370667 -2.5657739639282227
0.007924051955342293 -0.8451341986656189 -0.3679885268211365
1.8503129482269287 -0.9408199191093445 -3.871508836746216
1.7146360874176025 -0.9866867661476135 -4.856268882751465
