-5.019643306732178 -0.7763605117797852 -0.43303170800209045 0.36713168025016785
-1.1737067699432373 -0.9161405563354492 -0.5537652373313904 0.701496958732605
-1.712461233139038 -0.8886916637420654 -1.2505748271942139 0.4738779366016388
-4.080881118774414 -0.06919245421886444 2.1727771759033203 0.4461357593536377
-3.7450332641601562 -0.8421759009361267 -0.6846387982368469 0.4424324333667755
5.086146831512451 -0.8452816605567932 -0.2210085093975067 0.4079363942146301
-3.1121535301208496 -0.11947806924581528 5.301604270935059 0.40208521485328674
3.60674786567688 -0.07165294140577316 3.454805850982666 0.8863268494606018
-4.377609729766846 -0.9419690370559692 -1.0177998542785645 0.10618065297603607
0.11414323002099991 0.012981112115085125 3.895277976989746 0.6487899422645569
3.2815113067626953 -0.08728759735822678 3.533148765563965 0.9047161340713501
4.5217084884643555 -0.055902693420648575 3.1124565601348877 0.7129413485527039
5.401707649230957 -0.2989540696144104 1.3517850637435913 0.16455328464508057
-4.066805362701416 -0.7581915259361267 0.296409547328949 0.4683588445186615
3.373910427093506 -0.9300422668457031 -1.488660216331482 0.7977889180183411
4.902358531951904 -0.8740254640579224 -0.305556982755661 0.49257463216781616
-2.7853965759277344 -0.029523348435759544 3.5872881412506104 0.7886152267456055
4.036932468414307 -1.0164532661437988 -2.2128682136535645 0.10453759878873825
1.54483163356781 -0.20387014746665955 5.672039985656738 0.6165136098861694
4.04692268371582 -0.9081093668937683 0.45927363634109497 0.6369595527648926
-3.295354127883911 -0.06050688400864601 4.548309803009033 0.7002140283584595
-4.819331645965576 -0.01292504370212555 2.3816261291503906 0.8940973281860352
-1.9706321954727173 -0.9513972401618958 -0.9231947064399719 0.46187958121299744
-1.772040605545044 -0.9544575214385986 -0.2839421331882477 0.7999732494354248
-4.78428316116333 -0.1026938259601593 3.590360641479492 0.5595112442970276
-0.7673019170761108 -0.8517143726348877 -2.330458164215088 0.8612768650054932
-3.696361780166626 -0.12491920590400696 4.6235127449035645 0.498071551322937
-3.2909462451934814 -0.7740136384963989 0.6713247895240784 0.37121129035949707
-5.5944318771362305 -0.12343010306358337 1.4315963983535767 0.4928928315639496
4.385856628417969 -0.03556869924068451 2.5028038024902344 0.6063237190246582
4.078213214874268 -0.06699991226196289 3.44472074508667 0.835330605506897
-4.499124526977539 -0.026381269097328186 2.9505136013031006 0.8474564552307129
5.707698345184326 -0.9355959892272949 -0.701159656047821 0.09320987015962601
3.236924171447754 -0.08573111891746521 3.6695101261138916 0.9129440784454346
4.995995998382568 -0.05509300157427788 2.271605968475342 0.6132559776306152
-4.861895561218262 -0.22022131085395813 4.139174461364746 0.3736761808395386
3.717696189880371 -0.060988813638687134 2.89632511138916 0.6725279688835144
3.617379665374756 -0.06963522732257843 3.213047504425049 0.8500995635986328
0.8735660910606384 -0.8554848432540894 -2.4730114936828613 0.9181488752365112
3.008882761001587 -0.8965468406677246 -2.7482290267944336 0.23980845510959625
-1.4835652112960815 -0.8507996797561646 -1.5655611753463745 0.75662761926651
-1.913134217262268 -0.9549349546432495 -0.5732638239860535 0.8404544591903687
3.3217129707336426 -0.08846104890108109 3.107699155807495 0.7846774458885193
-1.6346694231033325 -0.8865111470222473 -1.8448102474212646 0.5345903038978577
-5.108040809631348 -0.11122718453407288 3.3505661487579346 0.5446984767913818
-0.14115700125694275 -0.0700334832072258 3.409877300262451 0.33585217595100403
-4.670237064361572 -0.6072750687599182 0.49363407492637634 0.05518508702516556
3.1990432739257812 -0.09226764738559723 3.3235888481140137 0.867015540599823
3.437162399291992 -0.944905161857605 -1.8398234844207764 0.7586309313774109
5.072213649749756 -0.06127464398741722 2.7353315353393555 0.650043249130249
-4.678150177001953 -0.08430495858192444 3.5093674659729004 0.5869283676147461
5.445009231567383 -0.1257360577583313 2.052936315536499 0.5896244049072266
-4.707063674926758 -0.0785396471619606 3.467848062515259 0.6054373383522034
4.391713619232178 -0.01695346087217331 2.6512444019317627 0.7551383376121521
-1.0084929466247559 -0.8866729736328125 -0.805707573890686 0.8867634534835815
-4.896236419677734 -0.017753202468156815 2.4433486461639404 0.8624321222305298
3.1228795051574707 -0.13475920259952545 2.7873194217681885 0.3288000822067261
4.618917465209961 -0.07069012522697449 3.1948490142822266 0.7298148274421692
4.716741561889648 -0.09601181745529175 3.7017924785614014 0.8893342018127441
2.1009671688079834 -0.2640746533870697 5.88410758972168 0.5815175771713257
-4.300992012023926 -0.23403233289718628 4.265820026397705 0.5063250064849854
-1.518420696258545 -0.9556544423103333 -0.4598624110221863 0.8127622008323669
-2.076066255569458 -0.9246352314949036 -1.4904975891113281 0.15661706030368805
-4.516958236694336 -0.04086001217365265 3.173128128051758 0.751506507396698
-3.86086106300354 -0.03340505063533783 3.2860465049743652 0.8138719201087952
-1.3777192831039429 -0.8496993780136108 -1.7236748933792114 0.7955418229103088
5.214433670043945 -0.07741295546293259 2.493468999862671 0.6273438334465027
3.952849864959717 -0.8846900463104248 0.6229966878890991 0.4686635434627533
1.153366208076477 -0.6859815120697021 1.8998488187789917 0.18757754564285278
3.4435861110687256 -0.9324972629547119 -1.487950086593628 0.734442412853241
4.3825178146362305 -0.09825190901756287 3.8944735527038574 0.8603327870368958
4.644606113433838 -0.04466226324439049 2.988186836242676 0.7022297382354736
3.4494364261627197 -0.8992695808410645 -0.1677723526954651 0.8927570581436157
3.113504409790039 -0.2406417727470398 5.248333930969238 0.5489940643310547
-4.613304138183594 -0.05110158771276474 2.1182563304901123 0.5334759950637817
4.153993129730225 -0.9183313846588135 0.19413526356220245 0.8608969449996948
0.28414085507392883 -0.7426413297653198 1.0604920387268066 0.927831768989563
-3.850766181945801 -0.010495705530047417 2.8146841526031494 0.8826601505279541
2.026216506958008 -0.8175837993621826 0.23435837030410767 0.9661061763763428
6.956365585327148 -0.5354151725769043 -0.651961624622345 0.3939075767993927
-4.818593978881836 -0.01723323203623295 2.4976806640625 0.8908272981643677
-1.0926264524459839 -0.8932725787162781 -0.7507315874099731 0.8103861212730408
2.239257335662842 -0.7319822311401367 1.1860313415527344 0.5155419707298279
-3.4726595878601074 0.017265550792217255 2.7657132148742676 0.798270046710968
-4.021975517272949 -0.13202020525932312 4.024332523345947 0.4717126190662384
-4.6399970054626465 -0.0779392346739769 3.480059862136841 0.5983636975288391
-1.5128681659698486 -0.9619234204292297 -0.3869500458240509 0.8425306081771851
5.439813137054443 -0.11115427315235138 2.4004528522491455 0.5573025345802307
4.898400783538818 -0.03743508830666542 2.529653549194336 0.7145942449569702
5.246384620666504 -1.0066173076629639 -0.8570858240127563 0.10006961971521378
3.6281590461730957 -0.9121681451797485 0.17961765825748444 0.8852015733718872
-0.6633353233337402 -0.017439354211091995 3.465780735015869 0.3731439709663391
0.9458913803100586 -0.7388681173324585 1.7060060501098633 0.49496111273765564
-1.4193542003631592 -0.8496017456054688 -1.6885855197906494 0.7841652035713196
4.422371864318848 -0.10398168116807938 3.686863422393799 0.881983757019043
2.5821518898010254 -0.08588402718305588 3.5331549644470215 0.8482187390327454
2.237041711807251 -0.8190191984176636 -0.1836533546447754 0.8685333132743835
1.5041637420654297 -0.1928602159023285 5.630693435668945 0.5807169079780579
1.5000767707824707 -0.705415666103363 1.762847661972046 0.23471838235855103
4.347795009613037 -0.9057031869888306 -0.2843366265296936 0.8478802442550659
3.8885421752929688 -0.05473339185118675 3.18997859954834 0.8644735813140869
-4.902329921722412 -0.7181608080863953 -0.09247789531946182 0.2450888603925705
4.717681884765625 -0.8582355976104736 -0.10120454430580139 0.6319804787635803
-3.630343198776245 -0.0061653973534703255 2.9340550899505615 0.8084084987640381
5.307921409606934 -0.09425336867570877 2.590911388397217 0.5601447224617004
2.472813606262207 -0.08572954684495926 3.5512938499450684 0.817715585231781
0.07390757650136948 -0.5722944140434265 -7.2356462478637695 0.5556312799453735
4.3485107421875 -0.9031112790107727 -0.10151267051696777 0.8077612519264221
4.938273906707764 -0.05028331279754639 2.8366780281066895 0.6824718713760376
2.8514790534973145 -0.11206188797950745 3.0914900302886963 0.6211062073707581
0.4468112885951996 -0.8817735910415649 -2.3365707397460938 0.8225371241569519
4.526073455810547 -0.10844282060861588 3.5399603843688965 0.886215329170227
3.090075731277466 -0.898272693157196 -2.6551408767700195 0.249339759349823
-1.7419066429138184 -0.9574159383773804 -0.3107650876045227 0.8248016834259033
-1.0441844463348389 -0.8757896423339844 -1.15712571144104 0.7906030416488647
-1.1924853324890137 -0.8412907123565674 -1.8316538333892822 0.9352467060089111
-4.39141321182251 -0.02900609001517296 2.4482057094573975 0.7831497192382812
-0.40538734197616577 -0.5687594413757324 -7.120558738708496 0.3140377104282379
-3.5897419452667236 -0.07162323594093323 3.85135817527771 0.7390852570533752
3.6204001903533936 -0.9596549272537231 -1.860848069190979 0.5293808579444885
2.9120237827301025 -0.1155799999833107 3.0117568969726562 0.54966801404953
-4.103857040405273 -0.9140864014625549 -0.9673157334327698 0.13165053725242615
-3.8778462409973145 -0.03413545712828636 3.290933847427368 0.8097848296165466
-4.034445762634277 -0.899528980255127 -0.9038022756576538 0.1732802540063858
3.3406777381896973 -0.08564025908708572 3.489258289337158 0.8948149681091309
-1.021207571029663 -0.89692223072052 -0.676778256893158 0.8242108821868896
3.143202304840088 -0.0945478081703186 3.208554744720459 0.8393362760543823
5.310610771179199 -0.10396997630596161 2.156158447265625 0.5871567726135254
2.527705192565918 -0.13188815116882324 3.097994804382324 0.4975799322128296
6.123778820037842 -0.2693574130535126 1.328863263130188 0.6557015776634216
-1.9394338130950928 -0.9357724785804749 -1.0702297687530518 0.3415881395339966
4.085536003112793 -0.04626604542136192 3.1928658485412598 0.8463467359542847
4.051327228546143 -0.0339830219745636 2.946876049041748 0.7955306768417358
4.47315788269043 -0.8896576762199402 0.3198094367980957 0.5143495202064514
3.6071524620056152 -0.07118700444698334 3.264120578765869 0.8600121140480042
4.8872971534729 -0.08657103776931763 3.3012733459472656 0.819843590259552
4.806220531463623 -0.09256156533956528 3.518051862716675 0.8384321928024292
2.2876224517822266 -0.28385356068611145 5.710237979888916 0.5543836951255798
6.677027225494385 -0.35488033294677734 0.8814650177955627 0.5222179293632507
-3.07633900642395 -0.20876209437847137 5.643918991088867 0.1707100123167038
-3.545424461364746 -0.002048713620752096 2.968487024307251 0.7796130180358887
4.871137619018555 -0.07821737974882126 3.168405532836914 0.7717321515083313
-0.9821967482566833 -0.8715441226959229 -1.5038241147994995 0.730633020401001
-2.726797580718994 -0.026580432429909706 4.063895225524902 0.8763642311096191
4.988892555236816 -0.08554403483867645 3.344635486602783 0.7339526414871216
-4.884304523468018 -0.19092389941215515 3.990604877471924 0.40318456292152405
-4.39882755279541 -0.040698014199733734 3.2281672954559326 0.7541844844818115
-1.707268476486206 -0.8781707286834717 -1.5822104215621948 0.49348145723342896
-4.148853302001953 -0.05210904777050018 3.4675214290618896 0.7000343203544617
3.142312526702881 -0.09778686612844467 3.134641170501709 0.7751202583312988
3.980120897293091 -1.0241339206695557 -2.386120080947876 0.10289066284894943
2.617250442504883 -0.3277274966239929 5.7914628982543945 0.5439602136611938
4.7488627433776855 -0.853107750415802 -0.08404615521430969 0.6130335330963135
-4.095402240753174 -0.8084036707878113 -0.03472930192947388 0.5992962121963501
6.08131217956543 -0.2643111050128937 1.366051197052002 0.6408193111419678
0.9424883723258972 -0.07883483916521072 3.51247239112854 0.4853748381137848
-4.5472092628479 -0.02506658434867859 2.422656536102295 0.8032281398773193
1.5066065788269043 -0.8019225597381592 -1.413496732711792 0.8140057325363159
1.8593573570251465 -0.815280556678772 0.47511106729507446 0.9305230975151062
-4.801459312438965 -0.05416553467512131 3.11788272857666 0.689635157585144
5.538024425506592 -0.12393220514059067 2.2698426246643066 0.5582735538482666
0.43711912631988525 -0.5957044959068298 -7.182239532470703 0.6388018131256104
6.078464984893799 -0.24064111709594727 1.742256999015808 0.5096731781959534
1.400184988975525 -0.813240110874176 -0.8016673922538757 0.8584237694740295
-4.299825668334961 -0.24383839964866638 4.585906028747559 0.4624960422515869
0.762506365776062 -0.903883159160614 -3.265507698059082 0.806354820728302
3.158388137817383 -0.09427518397569656 3.1834139823913574 0.8300961256027222
-1.2129244804382324 -0.8464361429214478 -1.5878698825836182 0.8729026317596436
3.5017318725585938 -0.07519789785146713 3.5708088874816895 0.8881467580795288
-1.9502768516540527 -0.9502718448638916 -0.9195532202720642 0.4784367084503174
-4.172441005706787 -0.055455781519412994 2.2498579025268555 0.550371527671814
-1.948346495628357 -0.9410337209701538 -1.0171564817428589 0.38602522015571594
0.9563138484954834 -0.8546183705329895 -2.4257569313049316 0.9182863831520081
-1.5778861045837402 -0.9646167755126953 -0.24580740928649902 0.8282629251480103
-1.4863008260726929 -0.9636096954345703 -0.3018251955509186 0.825279176235199
4.242770195007324 -0.022856049239635468 2.7394890785217285 0.7486868500709534
2.5591375827789307 -0.11182903498411179 3.207181215286255 0.6486788988113403
4.559623718261719 -0.8799042105674744 0.12920443713665009 0.5987508893013
-4.545700550079346 -0.8265712261199951 -0.3661350905895233 0.4261869192123413
2.6074299812316895 -0.10726533085107803 3.2459380626678467 0.6892681121826172
1.9768643379211426 -0.8095787763595581 -0.7171159982681274 0.8573422431945801
-3.9499824047088623 -0.8890282511711121 -1.0166893005371094 0.09974896162748337
0.9953857660293579 -0.01916082575917244 3.9711155891418457 0.8342462182044983
-0.15099650621414185 -0.8649069666862488 -2.89324951171875 0.7431136965751648
-3.6461143493652344 -0.755219578742981 0.5125342607498169 0.4512668251991272
4.606807708740234 -0.0429520457983017 2.3724238872528076 0.5883347392082214
4.022216796875 -0.057971127331256866 3.3252220153808594 0.8686356544494629
3.599790096282959 -0.07070364058017731 3.2112388610839844 0.8487139940261841
-4.548444747924805 -0.8571093082427979 -0.5250833034515381 0.37474870681762695
2.564187526702881 -0.1030714139342308 3.3172712326049805 0.7227522730827332
-3.348499059677124 -0.8255767226219177 -0.06753989309072495 0.827548623085022
4.44398832321167 -0.895075798034668 -0.1247774213552475 0.7616441249847412
4.714649200439453 -0.8575040698051453 -0.048245109617710114 0.6075472235679626
4.82423210144043 -0.06415213644504547 3.0525717735290527 0.7187851667404175
4.958919048309326 -0.8767976760864258 -0.33188900351524353 0.467561274766922
3.7514214515686035 -0.7357061505317688 -6.307428359985352 0.1350199282169342
2.567033290863037 -0.22701230645179749 2.746527671813965 0.10259738564491272
1.0756412744522095 -0.0830632895231247 3.488607883453369 0.4852307140827179
5.233050346374512 -0.1252339780330658 3.506603717803955 0.45571446418762207
-1.7160416841506958 -0.9579269886016846 -0.2400999367237091 0.796323299407959
-3.6352362632751465 -0.06467898935079575 3.748260021209717 0.7397521734237671
-3.669372081756592 -0.10045497119426727 4.150365352630615 0.5942280888557434
-3.3717098236083984 -0.7297006845474243 0.7801666259765625 0.24467693269252777
-0.21433347463607788 -0.9027072787284851 -1.2038345336914062 0.763367772102356
-1.6573128700256348 -0.9623067378997803 -0.31571295857429504 0.8452095985412598
-2.7212138175964355 -0.8901052474975586 -0.3259556293487549 0.6512870788574219
-4.894008159637451 -0.028134917840361595 2.6782610416412354 0.8160846829414368
2.8558883666992188 -0.12567970156669617 2.980958938598633 0.4893665611743927
-1.7205007076263428 -0.8944582343101501 -1.2082931995391846 0.4664474129676819
6.187716007232666 -0.2821092903614044 2.2610437870025635 0.18318699300289154
4.857500076293945 -0.08920390158891678 3.4513282775878906 0.8155996799468994
-4.801262378692627 -0.11800358444452286 3.667121171951294 0.5325286388397217
4.654618263244629 -0.016548672690987587 2.686333417892456 0.8152191638946533
-4.690746784210205 -0.03681539371609688 2.202200412750244 0.6563239097595215
-4.454536437988281 -0.7603165507316589 0.03406422585248947 0.38742032647132874
-1.6479501724243164 -0.9530390501022339 -0.5737583041191101 0.8069435358047485
0.7922232747077942 -0.005301046185195446 4.118344783782959 0.9038561582565308
5.200817584991455 -0.0829571932554245 2.835510492324829 0.5880277156829834
3.206742763519287 -0.10970932245254517 2.926751136779785 0.5477631092071533
2.206355571746826 -0.10232019424438477 3.3853957653045654 0.6630364656448364
2.6881818771362305 -0.1232001930475235 3.0794591903686523 0.5431787371635437
-0.33585983514785767 -0.5496658086776733 -7.247838020324707 0.5436283349990845
4.63792085647583 -0.09941978007555008 3.436206102371216 0.864311695098877
-4.402691841125488 -0.0760001614689827 2.0789973735809326 0.41983598470687866
-3.6439590454101562 -0.06623753905296326 3.7655649185180664 0.7356990575790405
-4.258971214294434 -0.04704729840159416 3.3672173023223877 0.7196176648139954
0.6817122101783752 -0.0792243704199791 5.52878475189209 0.30284053087234497
-4.9285736083984375 -0.0409657321870327 2.839907169342041 0.7364851236343384
1.8168576955795288 -0.25235867500305176 6.079625129699707 0.5461858510971069
-4.146501541137695 -0.8005974888801575 -0.012203607708215714 0.5615251064300537
0.23412716388702393 0.008263703435659409 4.464622497558594 0.7740102410316467
5.062369346618652 -0.08738099038600922 3.1397054195404053 0.669348418712616
4.69034481048584 -0.8902665376663208 -0.3566382825374603 0.5640184879302979
2.3753561973571777 -0.17909473180770874 2.923643112182617 0.23260441422462463
0.5183955430984497 -0.014386774972081184 4.761031627655029 0.8982349038124084
-1.234825611114502 -0.9060165882110596 -0.7109038829803467 0.723542332649231
1.4271899461746216 -0.7864139080047607 1.148740530014038 0.8813090324401855
-3.382352352142334 -0.1380011886358261 5.202689170837402 0.3270393908023834
-0.5900894403457642 -0.6692824959754944 1.8103420734405518 0.18889576196670532
4.871254920959473 -0.8861538767814636 -0.3806875944137573 0.4738874137401581
4.371428489685059 -0.8733934760093689 0.5402475595474243 0.34745606780052185
4.450872421264648 -0.03936946392059326 3.0376598834991455 0.7788485288619995
3.220417022705078 -0.1032700166106224 2.9875035285949707 0.6345695853233337
-2.589695453643799 -0.2785969078540802 6.326979160308838 0.07018350809812546
4.303225517272949 -0.9507506489753723 -1.0103631019592285 0.16481879353523254
-4.110462665557861 -0.052043765783309937 2.275923728942871 0.5672021508216858
-0.6735706925392151 -0.5615684390068054 -7.23134183883667 0.3295400142669678
2.0703084468841553 -0.9162671566009521 -2.2135632038116455 0.7861586809158325
2.8782405853271484 -0.11586090177297592 3.017266035079956 0.5485644340515137
-1.773150086402893 -0.9536640644073486 -0.2572666108608246 0.7845994234085083
-4.288033485412598 -0.9393905401229858 -1.1205281019210815 0.05584225803613663
4.6375017166137695 -0.08895689249038696 3.3446342945098877 0.8139845132827759
2.1200389862060547 -0.8560075759887695 -1.414774775505066 0.7302107214927673
4.91276741027832 -0.10527335852384567 3.918867826461792 0.6307318210601807
2.3795881271362305 -0.8069457411766052 0.649746298789978 0.7926791310310364
3.795900821685791 -0.06289496272802353 3.26558256149292 0.8863599896430969
3.570906639099121 -0.07011204957962036 2.9740848541259766 0.6988734006881714
5.863859176635742 -0.23394335806369781 2.696944236755371 0.25015607476234436
3.2464160919189453 -0.09330562502145767 3.0915846824645996 0.7795057892799377
0.6623485088348389 -0.7748659253120422 0.40266624093055725 0.8002429604530334
4.14980411529541 -0.038310326635837555 2.6119658946990967 0.6090220212936401
-3.15401291847229 0.009860820136964321 3.2207021713256836 0.7263785004615784
5.006828784942627 -0.12430813908576965 1.9469584226608276 0.34556663036346436
3.3420796394348145 -0.08843864500522614 3.2571253776550293 0.8414959907531738
4.130550861358643 -1.021281361579895 -2.1322312355041504 0.06766089797019958
2.6587066650390625 -0.1085423156619072 3.2091755867004395 0.6713405847549438
-4.295162200927734 -0.23634876310825348 4.376004219055176 0.49357762932777405
-1.7263126373291016 -0.9427356719970703 -0.8131865859031677 0.658815860748291
-4.5707550048828125 -0.012330703437328339 2.620758056640625 0.95017009973526
3.0143203735351562 -0.12851232290267944 2.873879909515381 0.4053785800933838
-3.8188211917877197 -0.014622998423874378 2.6307520866394043 0.8014894127845764
4.742369651794434 -0.09641104936599731 3.6039443016052246 0.8690845966339111
6.817727088928223 -0.4381176829338074 1.3646905422210693 0.06708157807588577
-2.171278476715088 -0.9515975713729858 -1.8485801219940186 0.08652020990848541
4.756347179412842 -0.8186415433883667 0.40974023938179016 0.2381448596715927
-3.5990614891052246 -0.8332140445709229 -0.597522497177124 0.617329478263855
3.946625232696533 -0.045163653790950775 3.0578601360321045 0.8261450529098511
4.277127265930176 -0.9136536121368408 0.2609524130821228 0.7211167216300964
-3.5764365196228027 -0.832556962966919 -0.7223796844482422 0.4405692219734192
-3.626441478729248 -0.0918329581618309 4.09982442855835 0.635206401348114
-4.80329704284668 -0.15217551589012146 3.824986457824707 0.477852463722229
-4.53324556350708 -0.21307088434696198 4.137550354003906 0.45920199155807495
-1.1514359712600708 -0.9302002787590027 -0.37447935342788696 0.7093288898468018
-1.4116581678390503 -0.9506696462631226 -0.4252464771270752 0.7711474895477295
-3.507510185241699 -0.705757737159729 0.7945590019226074 0.20090080797672272
3.3347561359405518 -0.08830329030752182 3.3138203620910645 0.8588050603866577
4.220068454742432 -0.11790736764669418 2.1879467964172363 0.13339006900787354
-3.269233226776123 -0.06266721338033676 4.664347171783447 0.693792462348938
3.0944623947143555 -0.08411022275686264 3.819486618041992 0.9253312349319458
4.914481163024902 -0.8871989846229553 -0.3930537700653076 0.4561964273452759
-3.9882116317749023 -0.011637075804173946 2.729959487915039 0.8962042331695557
-1.1741881370544434 -0.8979758620262146 -0.7381798028945923 0.7579984664916992
-2.57285213470459 -0.10450543463230133 5.518981456756592 0.5295262336730957
-4.499482154846191 -0.05307528004050255 3.310133934020996 0.6999292373657227
-4.290728569030762 -0.03986170515418053 3.2523703575134277 0.7619200944900513
4.261172771453857 -0.09055209904909134 3.7511391639709473 0.8414887189865112
4.440810203552246 -0.8998536467552185 0.25992733240127563 0.5919350385665894
4.965825080871582 -0.04495810717344284 2.720802068710327 0.6888538599014282
-2.741410970687866 -0.044750817120075226 4.717339992523193 0.7667756080627441
2.78904128074646 -0.24670225381851196 5.367226600646973 0.4804089367389679
-1.647977590560913 -0.9544604420661926 -0.5517852902412415 0.8199994564056396
4.005955219268799 -0.03743334487080574 2.9694716930389404 0.8034248948097229
-2.255683183670044 -0.9576714038848877 -0.8521727323532104 0.36044028401374817
3.260000228881836 -0.08100726455450058 3.806959629058838 0.9063527584075928
3.677483320236206 -0.0636858120560646 3.097024440765381 0.8097668886184692
0.6811378598213196 -0.6319679021835327 -7.255006313323975 0.4362283945083618
4.397103309631348 -0.21647796034812927 5.011275291442871 0.29646217823028564
4.218955039978027 -0.9581868052482605 -1.199395775794983 0.1040840670466423
-4.069515705108643 -0.8925991654396057 -0.6908243298530579 0.34950709342956543
-3.9247331619262695 -0.821912407875061 -0.07026384770870209 0.7038536071777344
-1.8590844869613647 -0.9506466388702393 -0.8565695881843567 0.5998829007148743
-4.1370086669921875 -0.01908339187502861 2.965056896209717 0.8835102319717407
-4.669853687286377 -0.042490214109420776 3.0778346061706543 0.743282675743103
-1.2039453983306885 -0.9352380037307739 -0.3808250427246094 0.7150107026100159
-3.1538496017456055 -0.04929927736520767 4.623173713684082 0.7660086154937744
-4.185181617736816 -0.0202945563942194 3.004070520401001 0.8835716247558594
3.418761968612671 -0.09709402173757553 2.8346846103668213 0.5133180618286133
-4.15960168838501 -0.7527483701705933 0.2670045793056488 0.4391758143901825
4.803159236907959 -0.0822795033454895 2.1293463706970215 0.41861772537231445
5.155681133270264 -0.06774914264678955 2.42335844039917 0.6603682637214661
-4.697981834411621 -0.019703956320881844 2.6863303184509277 0.8903603553771973
-0.10540445894002914 -0.9107104539871216 -1.6101282835006714 0.8337298035621643
-0.7890374660491943 -0.8543720245361328 -2.451615810394287 0.8292481303215027
4.858107566833496 -0.08497487008571625 3.6967592239379883 0.8205292820930481
4.374296188354492 -0.9357700347900391 -0.746322751045227 0.3790073096752167
-3.9889578819274902 -0.2307591438293457 5.021717548370361 0.23892171680927277
5.466559410095215 -0.7216525077819824 0.0648239329457283 0.09227161109447479
-3.2848074436187744 0.006845642346888781 3.143263339996338 0.7315878868103027
-4.2486114501953125 -0.02063525654375553 2.9900612831115723 0.8814702033996582
1.7271742820739746 -0.03916411101818085 4.154540061950684 0.8689004182815552
-2.798628091812134 -0.02699453756213188 4.144588947296143 0.8713356256484985
3.9080817699432373 -1.0329318046569824 -2.547858953475952 0.06325610727071762
-0.5941771268844604 -0.012634629383683205 3.5322012901306152 0.40809735655784607
-4.56381368637085 -0.03977607935667038 2.2144827842712402 0.6189690232276917
3.39628267288208 -0.896699845790863 -0.2566722333431244 0.9049772024154663
2.5476417541503906 -0.1532077044248581 2.9806134700775146 0.34886738657951355
-3.8704898357391357 -0.013859654776751995 2.928253412246704 0.8805301785469055
4.885908603668213 -0.040105968713760376 2.7671401500701904 0.6989362835884094
5.379969120025635 -0.10523270815610886 2.5836293697357178 0.5246679782867432
-4.951606750488281 -0.04089781641960144 2.008761405944824 0.5794928073883057
1.836164116859436 -0.8126726150512695 0.6486820578575134 0.8901585936546326
6.433321952819824 -0.33620983362197876 0.8020015954971313 0.5998990535736084
-4.338885307312012 -0.9048919081687927 -0.6689086556434631 0.3655325472354889
-3.919179677963257 -0.019347885623574257 3.030459403991699 0.8638893961906433
-3.833254098892212 -0.012748870067298412 2.9286484718322754 0.8808060884475708
-2.601865530014038 -0.013391811400651932 4.513706207275391 0.777772068977356
3.4720661640167236 -0.08100835978984833 3.3002591133117676 0.8600420951843262
-4.3465576171875 -0.88224196434021 -0.5537324547767639 0.44380202889442444
0.459161639213562 -0.869385838508606 -2.711033821105957 0.879237949848175
3.8991737365722656 -0.06079445034265518 3.338568687438965 0.9154462814331055
-2.913020610809326 -0.03547417372465134 3.956526041030884 0.9007799029350281
3.6972737312316895 -0.05556321144104004 3.8140029907226562 0.8860777616500854
-1.943753719329834 -0.9212310314178467 -1.245664119720459 0.2680269181728363
4.308318614959717 -0.0906284898519516 3.6112582683563232 0.8254903554916382
-4.234342098236084 -0.227514386177063 4.365087032318115 0.4901275336742401
-4.820401191711426 -0.017965633422136307 2.514483690261841 0.8864621520042419
-4.452836036682129 -0.034790053963661194 3.1173243522644043 0.789527952671051
-3.0328381061553955 -0.034914325922727585 4.212037086486816 0.8455653786659241
4.7773895263671875 -0.08473598957061768 3.2763724327087402 0.8200689554214478
-4.105695724487305 -0.02701840177178383 3.1272940635681152 0.842136800289154
1.2612206935882568 -0.7807414531707764 1.3846615552902222 0.8428103923797607
3.074763774871826 -0.09702862799167633 3.222039222717285 0.8400053381919861
2.7362117767333984 -0.09702303260564804 3.361088275909424 0.8054666519165039
3.5498175621032715 -0.07082686573266983 2.8692033290863037 0.6138446927070618
-3.901437759399414 -0.09839949011802673 3.8859574794769287 0.5837904214859009
3.223388671875 -0.8915290832519531 -0.5330616235733032 0.9419094324111938
-3.9616968631744385 -0.01400337740778923 2.8630270957946777 0.8869172930717468
4.930772304534912 -0.048028286546468735 2.8190572261810303 0.6849112510681152
-3.7235844135284424 -0.007479391060769558 2.836374282836914 0.8475042581558228
-4.391486167907715 -0.03898468241095543 3.2059485912323 0.764859676361084
-4.273476600646973 -0.7353450059890747 0.2915278375148773 0.379808247089386
-2.760148048400879 -0.9569752812385559 -1.0872161388397217 0.08039957284927368
1.8296549320220947 -0.9237174987792969 -2.317333221435547 0.8195699453353882
5.268741607666016 -0.08666635304689407 2.5279455184936523 0.592519223690033
-3.577327251434326 -0.1463821530342102 5.054477214813232 0.35141512751579285
-2.123898506164551 -0.9316239356994629 -1.5846240520477295 0.12232877314090729
6.477208137512207 -0.3843945264816284 0.5453608632087708 0.4906684458255768
-1.600106954574585 -0.9632790684700012 -0.4207659363746643 0.8757291436195374
4.3622727394104 -0.745895504951477 -5.865471363067627 0.06717446446418762
-3.8015341758728027 -0.7406623363494873 0.5356507897377014 0.3819042146205902
4.67409610748291 -0.8776267766952515 -0.25000423192977905 0.6342834830284119
3.2920761108398438 -0.087876096367836 3.494121551513672 0.901333749294281
3.2979421615600586 -0.18110351264476776 4.701452255249023 0.5493294596672058
-4.225765228271484 -0.08616320788860321 2.0654690265655518 0.3622210919857025
5.31974458694458 -0.09484146535396576 2.534996509552002 0.5649393796920776
2.260072708129883 -0.8372422456741333 -0.8113061785697937 0.7338900566101074
2.751772403717041 -0.1900242567062378 5.10099983215332 0.5148336887359619
3.5646424293518066 -0.07395029067993164 3.4601964950561523 0.883125364780426
4.4108428955078125 -0.9044924974441528 -0.3601657748222351 0.7759866714477539
1.820922613143921 -0.677431046962738 -6.922526836395264 0.2644287049770355
-3.6694867610931396 -0.11957354098558426 4.703365802764893 0.4829196035861969
1.1559637784957886 -0.090997613966465 5.383151531219482 0.38760942220687866
4.248730182647705 -0.032938819378614426 3.0556578636169434 0.8245644569396973
0.6612107753753662 -0.6565970182418823 1.9640851020812988 0.18193419277668
-3.660963535308838 -0.028717495501041412 3.275082588195801 0.7813770174980164
-3.63277268409729 -0.20672670006752014 5.257994651794434 0.18203634023666382
-4.957963943481445 -0.04576244205236435 2.8726325035095215 0.7084147930145264
5.288562297821045 -0.24077627062797546 1.5554673671722412 0.2026900202035904
0.5768623352050781 -0.6131369471549988 -7.169066905975342 0.6712617874145508
-4.378231048583984 -0.032727405428886414 2.396759033203125 0.7408707737922668
5.53399658203125 -0.23704464733600616 1.5401616096496582 0.3704507052898407
4.20888090133667 -1.0663137435913086 -2.510511875152588 0.008778124116361141
4.087629795074463 -0.06237155199050903 3.3621668815612793 0.8362131714820862
3.6487178802490234 -0.06964337825775146 3.334606647491455 0.8760280013084412
4.773815155029297 -0.02098141424357891 2.5511884689331055 0.7790850400924683
-3.7307770252227783 -0.016104470938444138 3.0422236919403076 0.8234760165214539
-4.004141807556152 -0.017032915726304054 2.6132967472076416 0.8434661626815796
2.2876133918762207 -0.20084141194820404 5.256631851196289 0.5334377884864807
5.739636421203613 -0.7673553824424744 -0.21218964457511902 0.0719771683216095
-4.191444396972656 -0.8859717845916748 -0.585389256477356 0.44697707891464233
5.186865329742432 -0.08144569396972656 2.8674235343933105 0.5931153893470764
-4.677389144897461 -0.030735479667782784 2.9080021381378174 0.8122031092643738
-4.896536827087402 -0.12808790802955627 1.6690537929534912 0.21928635239601135
3.806002616882324 -0.061435822397470474 3.237318754196167 0.8790316581726074
-3.2996091842651367 0.028166133910417557 2.9501311779022217 0.7968112230300903
-3.270313262939453 -0.04589792340993881 3.7602052688598633 0.8277331590652466
-1.712963342666626 -0.9459947943687439 -0.7778232097625732 0.6832810640335083
-3.5512988567352295 -0.8208892941474915 -0.0242721326649189 0.8323242664337158
-3.537220001220703 -0.1890627145767212 5.276310443878174 0.2013690024614334
0.3113096058368683 -0.7138373255729675 1.7095863819122314 0.42907315492630005
4.586073875427246 -0.044492002576589584 2.3700180053710938 0.5722540020942688
4.1361541748046875 -0.06399214267730713 2.4653432369232178 0.41639193892478943
-4.893132209777832 -0.09316334128379822 3.4257287979125977 0.5781407952308655
-1.8523402214050293 -0.954394519329071 -0.71869957447052 0.721643328666687
-4.646564483642578 -0.04258317872881889 3.096489191055298 0.743205726146698
5.109469890594482 -0.8316872119903564 -0.16404089331626892 0.391528844833374
-4.382551193237305 -0.022552937269210815 2.555516242980957 0.8514410257339478
-3.27947998046875 -0.13705170154571533 5.286745071411133 0.3122224509716034
0.4345969557762146 -0.603825569152832 2.064986228942871 0.078072689473629
-2.9841835498809814 -0.9033849835395813 -0.6233635544776917 0.3905235230922699
-2.5633537769317627 -0.956718921661377 -1.1671502590179443 0.056247279047966
-4.512101173400879 -0.037978645414114 2.2634847164154053 0.6508108973503113
6.034590244293213 -0.22467713057994843 1.9756946563720703 0.4096449017524719
4.571743965148926 -0.9605680704116821 -0.8937426805496216 0.15330123901367188
3.985616683959961 -0.7452784776687622 -6.311188220977783 0.04809577763080597
3.891120672225952 -0.06445999443531036 3.4342472553253174 0.9137060642242432
1.3058760166168213 -0.7809706330299377 1.42037832736969 0.7921877503395081
4.971035480499268 -0.880999743938446 -0.35954564809799194 0.45635858178138733
-4.631193161010742 -0.05421322584152222 3.2479748725891113 0.6951102018356323
0.8022616505622864 -0.8273483514785767 -0.2636675238609314 0.8578871488571167
-1.9037060737609863 -0.9481784105300903 -0.9058412313461304 0.5214322805404663
5.865662574768066 -0.22486022114753723 1.6293184757232666 0.5908476114273071
-0.04309277608990669 -0.5644588470458984 -7.236661911010742 0.5495477318763733
5.461678981781006 -0.11620905995368958 2.241035223007202 0.5778032541275024
2.2477996349334717 -0.10503511875867844 3.3699123859405518 0.6680440902709961
1.3710614442825317 -0.9090545177459717 -3.453488826751709 0.7383444309234619
4.610720634460449 -0.03461203724145889 2.4218544960021973 0.6474453210830688
-3.8428540229797363 -0.06168636679649353 3.6463522911071777 0.7034317851066589
3.5264511108398438 -0.07844603061676025 2.8267576694488525 0.556740403175354
-5.063717842102051 -0.09010264277458191 1.7184700965881348 0.358508437871933
-4.7291107177734375 -0.05454328656196594 2.0557143688201904 0.5107242465019226
4.974869251251221 -0.04787135124206543 2.453677177429199 0.6787956357002258
-4.890734672546387 -0.07661640644073486 1.8678711652755737 0.39258164167404175
-4.663882255554199 -0.01272608432918787 2.569045066833496 0.9395668506622314
4.596578598022461 -0.8890151977539062 -0.3030143678188324 0.6591783761978149
2.695282459259033 -0.09032291173934937 3.4646921157836914 0.8560473918914795
-3.6682817935943604 -0.005985254421830177 2.881744623184204 0.8260645866394043
3.482138156890869 -0.07609963417053223 2.9581854343414307 0.6805469393730164
4.020298004150391 -0.05484327673912048 3.287811517715454 0.8716685771942139
-3.4994893074035645 -0.8323201537132263 -0.4085638225078583 0.8325057029724121
2.3864428997039795 -0.19810917973518372 2.8697237968444824 0.17975208163261414
-3.652291774749756 -0.8328590393066406 -0.4918029308319092 0.798926055431366
-2.704397201538086 -0.01952449232339859 4.254173278808594 0.8328667879104614
-3.2649102210998535 -0.10968885570764542 5.121012210845947 0.4708087742328644
-0.2749331593513489 -0.551312267780304 -7.250735282897949 0.5559202432632446
-3.124520778656006 -0.046885713934898376 4.608154296875 0.780924916267395
-3.7022948265075684 -0.14858421683311462 4.91588020324707 0.38447535037994385
0.08728983253240585 -0.7491973042488098 0.743903398513794 0.7923665642738342
-4.599143028259277 -0.055723920464515686 3.290548801422119 0.6899562478065491
3.0177698135375977 -0.10296417027711868 3.166017532348633 0.7553131580352783
3.9734983444213867 -0.9483339786529541 -1.292333722114563 0.2113221138715744
4.341915607452393 -0.906771183013916 0.15435457229614258 0.721928596496582
2.0405139923095703 -0.8175604939460754 0.06515831500291824 0.9619097113609314
-3.9726216793060303 -0.014629334211349487 2.664483070373535 0.8591106534004211
-4.457319736480713 -0.12153030931949615 1.8681703805923462 0.22173459827899933
0.5324484705924988 -0.2920546531677246 6.559203147888184 0.3851468563079834
-4.235161781311035 -0.7249737977981567 0.3732088804244995 0.35554805397987366
-4.511909484863281 -0.03298388421535492 3.050157070159912 0.8006647229194641
2.8821640014648438 -0.10753637552261353 3.1631011962890625 0.7023597955703735
1.550894856452942 -0.775054931640625 1.3806068897247314 0.6638392210006714
-3.098891258239746 -0.039935532957315445 4.174154758453369 0.8315941095352173
-5.003639221191406 -0.013064686208963394 2.223048210144043 0.7917723655700684
-4.631887435913086 -0.019787561148405075 2.4427547454833984 0.8541179895401001
-3.336667060852051 0.010150860995054245 2.5884435176849365 0.5822442770004272
-4.391970157623291 -0.10406161844730377 1.9487862586975098 0.27313730120658875
2.3577048778533936 -0.6913707852363586 -6.83889102935791 0.19521331787109375
7.013640403747559 -0.5759589672088623 -0.8429539203643799 0.234360471367836
-3.4565210342407227 -0.8154523968696594 0.05915313959121704 0.8083772659301758
-2.9764504432678223 -0.0900690108537674 5.148416042327881 0.6387571096420288
3.489027738571167 -0.07985535264015198 3.302658796310425 0.8632757663726807
4.3432464599609375 -0.909505307674408 -0.36837849020957947 0.8391500115394592
1.5897886753082275 -0.7962135672569275 0.9177424311637878 0.8678348064422607
5.396877288818359 -0.10675539076328278 2.292436122894287 0.5896637439727783
5.370901107788086 -0.11514862626791 2.0913310050964355 0.5747098326683044
1.1974936723709106 -0.774474561214447 1.4647865295410156 0.7546324729919434
-2.980435848236084 -0.03519131615757942 3.8059041500091553 0.8699618577957153
3.005809783935547 -0.10015752911567688 3.2356739044189453 0.8245939612388611
-2.4667179584503174 -0.07243713736534119 5.278033256530762 0.8003588318824768
-5.11474609375 -0.04108341038227081 1.9037117958068848 0.5892890095710754
-4.488263130187988 -0.9043818712234497 -0.7496318817138672 0.26361268758773804
-4.116976737976074 -0.211464062333107 4.386016845703125 0.48059993982315063
4.830345153808594 -0.8199729323387146 0.277622252702713 0.3522113263607025
-4.8919758796691895 -0.8532257080078125 -0.7449548244476318 0.28614476323127747
-4.83951997756958 -0.29057222604751587 4.410636901855469 0.22024956345558167
3.208221435546875 -0.08820225298404694 3.629077911376953 0.9172918200492859
-4.3141913414001465 -0.8878509402275085 -0.5671917200088501 0.45285823941230774
-4.840160846710205 -0.1989055722951889 4.03648042678833 0.40036851167678833
-3.0519001483917236 0.007204563822597265 3.2831344604492188 0.7302370071411133
-4.6594133377075195 -0.015644781291484833 2.6413960456848145 0.9219506978988647
-3.168973684310913 -0.188672736287117 5.53408145904541 0.1893020123243332
-3.8429512977600098 -0.0312187522649765 3.258869171142578 0.8189402222633362
-4.00932502746582 -0.02499602735042572 3.1197783946990967 0.8500885367393494
-3.6513781547546387 -0.016403039917349815 3.086026668548584 0.7898803949356079
-4.754942893981934 -0.11651718616485596 3.6654610633850098 0.5325832962989807
3.6939311027526855 -0.06579658389091492 3.5892510414123535 0.8995053768157959
-4.359941482543945 -0.17875568568706512 1.7540931701660156 0.11019378900527954
-4.153271675109863 -0.8838968276977539 -0.5847008228302002 0.45215338468551636
-3.6872029304504395 -0.8333624601364136 -0.4115363359451294 0.8732882142066956
1.1719825267791748 -0.7760727405548096 1.4059401750564575 0.8305304646492004
-4.374652862548828 -0.9305383563041687 -0.8745201230049133 0.19876894354820251
4.309360504150391 -0.7615599036216736 -5.856881141662598 0.034615106880664825
3.671022891998291 -0.06742565333843231 3.2509970664978027 0.8630341291427612
2.900239944458008 -0.1076536774635315 3.157223701477051 0.7046626806259155
2.614885091781616 -0.08877509832382202 3.493565320968628 0.8400042653083801
-3.125018358230591 0.04639488831162453 3.0119175910949707 0.8314687609672546
-3.300225019454956 -0.038980741053819656 3.5939407348632812 0.7922447919845581
2.9787559509277344 -0.08859959244728088 3.6649656295776367 0.9306836724281311
4.789313793182373 -0.999358057975769 -1.0656938552856445 0.04741282761096954
-4.896205902099609 -0.13977450132369995 3.758269786834717 0.48968735337257385
2.7309396266937256 -0.08164406567811966 3.7665770053863525 0.9175548553466797
-3.2983155250549316 -0.09561712294816971 5.023745536804199 0.5337678790092468
-2.546658754348755 -0.9583881497383118 -1.0056848526000977 0.1467648297548294
5.251678943634033 -0.08730386197566986 2.66953706741333 0.5780652165412903
-4.879112720489502 -0.6669502258300781 0.09699395298957825 0.15200020372867584
5.620767593383789 -0.1342213749885559 2.2294344902038574 0.5521256923675537
1.4883102178573608 -0.8013038635253906 -1.394834041595459 0.8292903900146484
-4.742010116577148 -0.045376863330602646 2.1118974685668945 0.5800498723983765
-0.636070966720581 -0.8720726370811462 -2.9208474159240723 0.45638322830200195
4.518949508666992 -0.9249897599220276 -0.6262996196746826 0.4274563491344452
-4.657180309295654 -0.04866843670606613 3.1614904403686523 0.717241108417511
3.552403211593628 -0.7248978018760681 1.198044776916504 0.09647680073976517
4.614933967590332 -0.9650468826293945 -0.9091237783432007 0.14014285802841187
-0.29436245560646057 -0.5541773438453674 -7.2604169845581055 0.5097686052322388
5.045617580413818 -0.8703905344009399 -0.3266148269176483 0.4303196966648102
4.216738700866699 -0.911749541759491 -0.09283554553985596 0.8889512419700623
6.815795421600342 -0.4245202839374542 0.3432738482952118 0.5049371123313904
4.358166694641113 -0.8245214223861694 0.6990716457366943 0.16512401401996613
4.303761959075928 -0.9073420763015747 0.06832533329725266 0.7843966484069824
2.837090492248535 -0.14346206188201904 4.765632629394531 0.5775240659713745
-3.9430370330810547 -0.11103494465351105 3.9461798667907715 0.5359043478965759
5.924511432647705 -0.20283924043178558 1.8773748874664307 0.5622295141220093
-4.841573238372803 -0.0994623452425003 3.5357518196105957 0.5670934319496155
-3.6484670639038086 -0.11324029415845871 4.613076210021973 0.5145655274391174
-3.8795647621154785 -0.17728009819984436 4.819604396820068 0.39043107628822327
-3.8602991104125977 -0.8124301433563232 0.04302328824996948 0.6869967579841614
5.116903781890869 -0.12439718097448349 1.9256788492202759 0.3828245997428894
-4.774145603179932 -0.7494027614593506 -0.14396974444389343 0.3070801794528961
0.3898962736129761 -0.5921993255615234 -7.207352161407471 0.6020971536636353
3.667001485824585 -0.06612907350063324 3.1864805221557617 0.8478144407272339
-4.437564849853516 -0.017630692571401596 2.623823642730713 0.9019953012466431
5.570516586303711 -0.9588910341262817 -0.7444782853126526 0.10063277930021286
-3.3795266151428223 -0.0802227035164833 4.794628143310547 0.6098423004150391
-3.8951683044433594 -0.889310359954834 -1.245055079460144 0.013441524468362331
6.367192268371582 -0.7805303335189819 -3.954021453857422 0.08523408323526382
-4.808791637420654 -0.019210100173950195 2.299139976501465 0.8125269412994385
-4.441173553466797 -0.15605753660202026 3.9140846729278564 0.46713948249816895
4.604305267333984 -0.859575092792511 0.34418943524360657 0.3848028779029846
2.862673282623291 -0.17032703757286072 2.8136556148529053 0.2528016269207001
-4.615306854248047 -0.2407403588294983 4.294821739196777 0.4459376335144043
-4.405755043029785 -0.034814707934856415 3.141177177429199 0.7901790142059326
-3.53779673576355 -0.07662343233823776 4.027087211608887 0.705944836139679
-4.964758396148682 -0.10931182652711868 3.4947259426116943 0.548616349697113
-3.349811553955078 -0.043476201593875885 3.6077702045440674 0.8001474738121033
3.1296780109405518 -0.09367174655199051 3.4405651092529297 0.9010282158851624
-3.717855215072632 -0.010157382115721703 2.6270065307617188 0.7890776991844177
-4.71189546585083 -0.14646579325199127 3.8110570907592773 0.48678964376449585
-4.987961769104004 -0.16011019051074982 3.82951021194458 0.4320293068885803
-4.636793613433838 -0.028156641870737076 2.3187878131866455 0.7513077855110168
-4.846116542816162 -0.05703616514801979 3.1181745529174805 0.6755175590515137
6.0449981689453125 -0.27306950092315674 1.282811164855957 0.6123787760734558
1.8408535718917847 -0.811792254447937 0.665438711643219 0.8837435841560364
2.356234312057495 -0.06636200845241547 3.9410271644592285 0.8831061124801636
3.2808403968811035 -0.08936946094036102 3.4107556343078613 0.886420726776123
-3.316298484802246 0.0330633781850338 2.775703191757202 0.7620798349380493
5.053678035736084 -0.9371788501739502 -0.5828995108604431 0.24765686690807343
3.7839579582214355 -1.0177582502365112 -2.5906572341918945 0.06138893961906433
4.389261245727539 -0.905288577079773 -0.35422489047050476 0.80386883020401
5.399962902069092 -0.1094302162528038 2.6242103576660156 0.5025135278701782
3.621479034423828 -0.06799770891666412 3.1187524795532227 0.8054653406143188
-4.949575901031494 -0.20610862970352173 1.3753371238708496 0.07152894884347916
-3.7348015308380127 -0.057096950709819794 3.6217424869537354 0.7369063496589661
4.360671520233154 -0.9179861545562744 -0.4854885935783386 0.6918203234672546
1.826610803604126 -0.7646100521087646 1.2189661264419556 0.6023119688034058
3.9890153408050537 -0.9673923254013062 -1.4829975366592407 0.16711899638175964
-4.703713417053223 -0.14081719517707825 1.7193005084991455 0.18522801995277405
-3.39351749420166 -0.08259203284978867 4.813081741333008 0.5989416837692261
-4.408871650695801 -0.036902669817209244 3.170121908187866 0.7771892547607422
-4.123241424560547 -0.7925305366516113 0.04966654255986214 0.5528832077980042
2.481395721435547 -0.09063825011253357 3.492724895477295 0.7923529744148254
-0.5406515002250671 -0.7389048337936401 1.5853028297424316 0.454692006111145
1.2039097547531128 -0.7736213207244873 1.4844818115234375 0.7284129858016968
1.1234301328659058 -0.9165433645248413 -3.603877305984497 0.7510609030723572
-4.272931098937988 -0.23885762691497803 4.549472808837891 0.4661185145378113
4.392327785491943 -0.9212190508842468 -0.547950804233551 0.5917612314224243
3.3703832626342773 -0.0910419449210167 2.9329116344451904 0.6266142129898071
-4.243112087249756 -0.019571278244256973 2.622162342071533 0.8615541458129883
-4.657675743103027 -0.06951886415481567 2.0117902755737305 0.43669626116752625
-3.1258950233459473 -0.07281312346458435 4.944746971130371 0.6772283315658569
2.95587420463562 -0.09630211442708969 3.3566737174987793 0.8878000974655151
1.19551682472229 -0.8106468319892883 0.16292819380760193 0.8455280065536499
-4.347823143005371 -0.706863284111023 0.38539403676986694 0.29223358631134033
-3.303034782409668 -0.328006386756897 5.864993095397949 0.021647613495588303
6.508556365966797 -0.34006398916244507 0.8305555582046509 0.5922552347183228
-3.338674545288086 -0.8266465067863464 -0.08199179917573929 0.8301899433135986
3.960642099380493 -0.8456062078475952 0.7642609477043152 0.27125683426856995
5.464503765106201 -0.11441437155008316 2.4445056915283203 0.5396387577056885
2.065781831741333 -0.6823573112487793 -6.876810073852539 0.2509177029132843
5.132349491119385 -0.10370070487260818 2.018416404724121 0.46704092621803284
-4.414539337158203 -0.38113343715667725 5.155588626861572 0.03310197964310646
-5.08463191986084 -0.04929151386022568 2.7939701080322266 0.668096661567688
